# .PCD v.7 - Point Cloud Data file format
VERSION .7
FIELDS x y z
SIZE 4 4 4
TYPE F F F
COUNT 1 1 1
WIDTH 1740
HEIGHT 1
VIEWPOINT 0 0 0 1 0 0 0
POINTS 1740
DATA ascii
0.541428 -0.103278 0.690687
0.535802 -0.069531 0.701001
0.533428 -0.08089 0.701753
0.532021 -0.085138 0.701371
0.521955 -0.057865 0.7147
0.520238 -0.069374 0.714609
0.5191 -0.073769 0.713899
0.394691 -0.012075 0.822812
0.393317 -0.022826 0.822024
0.392287 -0.026933 0.820844
0.363336 -0.004076 0.843387
0.361997 -0.014717 0.84244
0.361043 -0.018788 0.841149
0.328652 0.003719 0.862991
0.32732 -0.006819 0.861853
0.326437 -0.010864 0.860445
0.090839 0.035258 0.93069
0.089317 0.025008 0.928535
0.088555 0.021001 0.926597
0.058726 0.037064 0.933889
0.057617 0.026746 0.931621
0.057066 0.022725 0.929629
0.028813 0.038032 0.935527
0.02823 0.027651 0.933182
0.027941 0.023617 0.931155
0.543527 -0.268456 0.659231
0.539206 -0.264944 0.664779
0.536926 -0.263659 0.666245
0.549218 -0.220744 0.663089
0.544763 -0.218813 0.66867
0.542471 -0.218234 0.670076
0.553467 -0.168687 0.668509
0.548604 -0.170759 0.67393
0.546224 -0.171784 0.675179
0.488655 -0.042652 0.745722
0.487279 -0.053934 0.745165
0.486239 -0.058281 0.744263
0.469245 -0.035279 0.76338
0.467882 -0.046421 0.762769
0.466822 -0.050705 0.761811
0.447417 -0.027764 0.78226
0.446033 -0.038766 0.781625
0.444949 -0.042983 0.780609
0.249686 0.017739 0.895818
0.248152 0.007394 0.894292
0.247285 0.003385 0.892667
0.207346 0.023606 0.908248
0.205647 0.01334 0.906546
0.204738 0.009342 0.904829
0.16556 0.02855 0.918119
0.163757 0.018335 0.916253
0.162825 0.014341 0.914454
0.324306 -0.013089 0.854266
0.358183 -0.020907 0.835423
0.388762 -0.028981 0.815597
0.322843 -0.01461 0.849806
0.35608 -0.022334 0.83134
0.386081 -0.030337 0.811915
0.321395 -0.016323 0.845695
0.353968 -0.023948 0.827619
0.383367 -0.031877 0.808608
0.028063 0.020969 0.923225
0.057276 0.020019 0.921763
0.088789 0.018241 0.918835
0.028348 0.01908 0.917315
0.0578 0.018084 0.915901
0.089458 0.016265 0.913054
0.028676 0.016988 0.911705
0.058404 0.015947 0.91034
0.090236 0.014087 0.907577
0.162779 0.011615 0.907018
0.204359 0.006716 0.897621
0.246444 0.00089 0.885741
0.163289 0.009671 0.901504
0.204544 0.004856 0.892299
0.246173 -0.00086 0.880655
0.163915 0.007526 0.896303
0.204827 0.002798 0.887296
0.245973 -0.002806 0.875897
0.440644 -0.045028 0.776322
0.462405 -0.052781 0.757951
0.481787 -0.06035 0.740754
0.437239 -0.046336 0.773442
0.458857 -0.054086 0.755431
0.478158 -0.061622 0.738535
0.433767 -0.04782 0.770962
0.455226 -0.05556 0.753325
0.474433 -0.063056 0.736747
0.540455 -0.172097 0.672667
0.536484 -0.218238 0.667873
0.530746 -0.263533 0.664354
0.535783 -0.172267 0.671128
0.531652 -0.218336 0.666533
0.525788 -0.2636 0.663218
0.530994 -0.172494 0.67007
0.526722 -0.218459 0.665617
0.520752 -0.263664 0.662446
0.514458 -0.075538 0.710751
0.527143 -0.086607 0.698298
0.53624 -0.104391 0.687728
0.510599 -0.07653 0.708869
0.523092 -0.087363 0.696477
0.531973 -0.104903 0.685953
0.506619 -0.077664 0.707471
0.518909 -0.088246 0.695165
0.52757 -0.105524 0.684703
0.464123 -0.075737 0.754075
0.461447 -0.081572 0.755517
0.45777 -0.093785 0.756211
0.445876 -0.068785 0.769904
0.443594 -0.074734 0.771175
0.440209 -0.086994 0.771618
0.425674 -0.061525 0.78687
0.423892 -0.067603 0.787945
0.420901 -0.079909 0.788099
0.513468 -0.251986 0.682475
0.512451 -0.251168 0.685226
0.509575 -0.250237 0.688997
0.518953 -0.212038 0.686332
0.517793 -0.212396 0.688889
0.514722 -0.212957 0.692395
0.522684 -0.171841 0.691395
0.521262 -0.173914 0.693678
0.517922 -0.177261 0.696645
0.517923 -0.11354 0.705874
0.515914 -0.118504 0.707616
0.512538 -0.128563 0.709051
0.508596 -0.098421 0.715501
0.506291 -0.103994 0.717097
0.502923 -0.115592 0.718128
0.495851 -0.089043 0.726751
0.493212 -0.094806 0.728314
0.489644 -0.106922 0.729216
0.091849 -0.002778 0.918303
0.091721 -0.009523 0.918874
0.091185 -0.021909 0.918114
0.059652 -0.000908 0.920918
0.059579 -0.00769 0.921487
0.059238 -0.020116 0.920723
0.029352 0.000188 0.922195
0.029319 -0.006612 0.922763
0.029154 -0.019064 0.921997
0.245706 -0.018506 0.887903
0.245166 -0.024899 0.8885
0.243603 -0.037085 0.887811
0.205491 -0.013322 0.898865
0.205067 -0.019812 0.89945
0.203769 -0.032035 0.89873
0.165249 -0.00897 0.907519
0.164942 -0.015563 0.908097
0.163919 -0.02784 0.907357
0.378081 -0.046305 0.823163
0.37707 -0.052551 0.823931
0.374738 -0.064856 0.823605
0.350051 -0.038652 0.841465
0.349222 -0.044923 0.842152
0.347088 -0.057181 0.841678
0.318788 -0.031303 0.858854
0.318064 -0.03759 0.859494
0.316094 -0.049799 0.85892
0.363943 -0.117037 0.818314
0.35611 -0.153694 0.813702
0.348216 -0.189969 0.808705
0.336654 -0.108895 0.835821
0.328966 -0.145164 0.83083
0.321196 -0.181048 0.825467
0.306224 -0.101066 0.852622
0.298904 -0.136969 0.84732
0.291499 -0.172482 0.841648
0.446993 -0.147585 0.754084
0.440511 -0.185825 0.751361
0.434264 -0.223747 0.748087
0.429239 -0.140512 0.768734
0.422286 -0.178442 0.765566
0.415492 -0.216026 0.761884
0.409857 -0.133028 0.784352
0.402444 -0.170545 0.780682
0.395099 -0.207698 0.77655
0.504587 -0.174059 0.707691
0.500092 -0.209047 0.704949
0.494803 -0.24573 0.702099
0.493636 -0.167029 0.716736
0.488182 -0.204159 0.714404
0.482625 -0.241707 0.711693
0.479615 -0.160464 0.727809
0.47372 -0.198648 0.725573
0.468033 -0.236679 0.722824
0.088104 -0.071804 0.910894
0.085741 -0.106249 0.904907
0.083336 -0.140207 0.898536
0.057235 -0.070082 0.91348
0.055691 -0.104553 0.907476
0.054116 -0.138532 0.901088
0.028167 -0.069112 0.914744
0.027404 -0.103635 0.908733
0.026626 -0.137663 0.902336
0.235578 -0.087582 0.880948
0.229589 -0.122788 0.875228
0.223527 -0.157576 0.869132
0.196961 -0.082238 0.891709
0.191854 -0.117134 0.885871
0.186678 -0.151591 0.879655
0.158403 -0.077835 0.900236
0.154235 -0.112483 0.894323
0.150005 -0.146672 0.88803
0.379663 -0.034804 0.806351
0.378921 -0.036037 0.807696
0.378648 -0.037144 0.810004
0.351094 -0.026979 0.824793
0.350519 -0.028233 0.826026
0.350307 -0.02935 0.828298
0.31944 -0.019489 0.84233
0.319049 -0.02077 0.843456
0.318906 -0.021898 0.845691
0.245753 -0.006295 0.871638
0.24571 -0.007641 0.872585
0.245695 -0.008792 0.874754
0.205282 -0.000844 0.882698
0.205374 -0.002221 0.883577
0.205408 -0.003383 0.885721
0.164849 0.003766 0.891432
0.165037 0.002366 0.892255
0.165107 0.001195 0.894379
0.091368 0.010279 0.902325
0.091596 0.008869 0.903072
0.09168 0.007694 0.905169
0.05928 0.012195 0.904973
0.059457 0.010796 0.905697
0.059522 0.009626 0.907785
0.02915 0.013298 0.906269
0.029246 0.011911 0.90698
0.029281 0.010745 0.909063
0.521536 -0.106952 0.685708
0.520356 -0.107672 0.688015
0.519946 -0.108325 0.690953
0.513151 -0.090123 0.696031
0.512006 -0.09102 0.698263
0.511591 -0.091848 0.701114
0.501132 -0.079944 0.7081
0.500034 -0.080974 0.710193
0.49963 -0.081914 0.712897
0.514214 -0.26366 0.663115
0.513194 -0.263393 0.664663
0.513062 -0.262721 0.66679
0.520218 -0.218718 0.666448
0.519126 -0.218692 0.668284
0.518899 -0.218367 0.67072
0.524573 -0.173084 0.671039
0.52342 -0.173326 0.673138
0.523106 -0.17338 0.67586
0.46931 -0.06581 0.736638
0.468283 -0.066986 0.738433
0.467905 -0.068038 0.74089
0.45024 -0.058384 0.752738
0.449242 -0.059586 0.754411
0.448874 -0.060662 0.75681
0.429006 -0.050664 0.769845
0.428053 -0.051875 0.771409
0.427702 -0.052966 0.773774
0.378606 -0.039125 0.81531
0.378582 -0.040206 0.817699
0.378517 -0.041575 0.819836
0.350276 -0.031343 0.833627
0.350269 -0.032438 0.836034
0.350251 -0.033832 0.838181
0.318885 -0.023897 0.851025
0.318885 -0.025 0.853438
0.318886 -0.026411 0.855588
0.245693 -0.010797 0.880081
0.245699 -0.011919 0.882494
0.245714 -0.013379 0.884645
0.205415 -0.005392 0.891044
0.205423 -0.006527 0.893458
0.205447 -0.008023 0.895609
0.165118 -0.000818 0.899699
0.165129 -0.001965 0.902113
0.165159 -0.003497 0.904264
0.091694 0.005679 0.910485
0.091705 0.004514 0.912898
0.091734 0.002934 0.915049
0.059532 0.007611 0.9131
0.05954 0.006442 0.915514
0.059563 0.004852 0.917664
0.029287 0.00873 0.914377
0.029291 0.00756 0.916791
0.029303 0.005967 0.918941
0.519912 -0.109261 0.696917
0.519808 -0.109692 0.699502
0.519515 -0.110357 0.701837
0.51152 -0.093221 0.706842
0.511358 -0.09391 0.7093
0.510913 -0.094821 0.711531
0.499544 -0.08352 0.718336
0.499335 -0.084331 0.72067
0.498767 -0.085342 0.722813
0.513472 -0.259553 0.672015
0.513543 -0.257271 0.674798
0.513561 -0.255012 0.677528
0.519163 -0.216297 0.676285
0.519195 -0.214751 0.679046
0.519176 -0.213306 0.681675
0.52324 -0.172515 0.681735
0.523236 -0.171777 0.684474
0.523167 -0.171211 0.687009
0.467821 -0.069849 0.745988
0.467612 -0.070767 0.748215
0.467044 -0.07188 0.750278
0.448798 -0.062539 0.761915
0.448634 -0.06351 0.764168
0.44819 -0.064697 0.766239
0.427636 -0.054891 0.778947
0.427528 -0.05591 0.78125
0.427236 -0.057174 0.783345
0.504276 -0.308004 0.677594
0.501481 -0.32134 0.675844
0.498752 -0.328982 0.67384
0.503361 -0.30614 0.680521
0.500589 -0.319336 0.678785
0.497865 -0.32698 0.676769
0.500634 -0.30416 0.684372
0.497889 -0.317118 0.682572
0.495187 -0.32463 0.68046
0.566613 -0.618329 -0.079968
0.56247 -0.637511 -0.079211
0.559179 -0.644601 -0.078684
0.560266 -0.612579 -0.072025
0.556217 -0.63195 -0.071305
0.55298 -0.639125 -0.070817
0.55402 -0.606648 -0.063629
0.550068 -0.626225 -0.062948
0.546887 -0.633495 -0.0625
0.041702 -0.893853 -0.69755
0.041267 -0.901795 -0.691174
0.040979 -0.903926 -0.686669
0.08059 -0.892046 -0.693607
0.07974 -0.899907 -0.687293
0.07918 -0.902015 -0.682827
0.113851 -0.889875 -0.688805
0.112628 -0.897643 -0.682576
0.111825 -0.899725 -0.67816
0.215729 -0.876835 -0.65192
0.213747 -0.884634 -0.645885
0.212329 -0.886775 -0.641671
0.250376 -0.869812 -0.63265
0.248453 -0.877651 -0.626554
0.246954 -0.879827 -0.622376
0.28938 -0.86077 -0.608829
0.287478 -0.868671 -0.602705
0.285871 -0.870895 -0.598587
0.555169 -0.685219 -0.208676
0.552235 -0.69615 -0.204197
0.549418 -0.700034 -0.201919
0.564296 -0.667168 -0.170747
0.561214 -0.679512 -0.165851
0.5583 -0.684023 -0.163602
0.571046 -0.649791 -0.138204
0.567473 -0.665213 -0.133814
0.564349 -0.670899 -0.131944
0.57767 -0.629051 -0.098377
0.573308 -0.648768 -0.096752
0.569915 -0.655905 -0.095823
0.577617 -0.626737 -0.091474
0.573318 -0.646022 -0.09045
0.569937 -0.653102 -0.089769
0.575754 -0.625218 -0.088587
0.571499 -0.644281 -0.087763
0.568139 -0.651303 -0.087181
0.336905 -0.239245 0.800288
0.333933 -0.24989 0.796987
0.331791 -0.255443 0.793534
0.310082 -0.229826 0.816586
0.307206 -0.240407 0.813201
0.305184 -0.245978 0.80971
0.280926 -0.220773 0.832344
0.27822 -0.23128 0.828863
0.276351 -0.236853 0.825309
0.599009 -0.420404 0.51442
0.596162 -0.435553 0.513173
0.593241 -0.442113 0.511343
0.602144 -0.413828 0.523709
0.599115 -0.428387 0.52234
0.596117 -0.434776 0.52045
0.605607 -0.407306 0.53278
0.602413 -0.421272 0.531299
0.599344 -0.427489 0.529354
0.365868 -0.836963 -0.550127
0.363708 -0.845129 -0.544201
0.361776 -0.847521 -0.54033
0.399726 -0.822277 -0.515756
0.397302 -0.830657 -0.510092
0.395166 -0.833174 -0.506419
0.430691 -0.805726 -0.477855
0.427991 -0.81437 -0.472557
0.425656 -0.817035 -0.469133
0.153674 -0.886947 -0.681849
0.151903 -0.89462 -0.675789
0.150767 -0.89668 -0.671466
0.163232 -0.886074 -0.679154
0.161303 -0.893763 -0.673153
0.160074 -0.895833 -0.668864
0.173155 -0.884609 -0.674519
0.171142 -0.892334 -0.668547
0.169846 -0.894424 -0.664286
0.589759 -0.376047 0.581501
0.586694 -0.388943 0.579798
0.583723 -0.394916 0.577641
0.573135 -0.362506 0.603096
0.570093 -0.375389 0.601228
0.567183 -0.381401 0.598943
0.556325 -0.348781 0.624825
0.553287 -0.361652 0.622782
0.550431 -0.367702 0.620364
0.545032 -0.588026 -0.040507
0.541317 -0.608081 -0.03993
0.53825 -0.615583 -0.039593
0.546161 -0.582947 -0.035458
0.542486 -0.603063 -0.034903
0.539429 -0.610603 -0.03459
0.547466 -0.577076 -0.029622
0.543837 -0.597263 -0.029093
0.540793 -0.604847 -0.028807
0.484605 -0.767137 -0.391108
0.481564 -0.776431 -0.386807
0.478933 -0.779453 -0.384012
0.507388 -0.745981 -0.343942
0.504319 -0.755641 -0.340096
0.501605 -0.758864 -0.337614
0.526947 -0.724724 -0.296608
0.52391 -0.734763 -0.29297
0.521146 -0.73819 -0.290713
0.214892 -0.204891 0.859217
0.212713 -0.215233 0.855568
0.211243 -0.220791 0.851886
0.179309 -0.198452 0.869558
0.177458 -0.208717 0.865853
0.17622 -0.214265 0.862121
0.143984 -0.193162 0.877813
0.142476 -0.203363 0.874067
0.141474 -0.208904 0.870296
0.593969 -0.431569 0.496458
0.591459 -0.447819 0.495415
0.588676 -0.454746 0.493641
0.594211 -0.430423 0.498597
0.591677 -0.446525 0.49755
0.588885 -0.453396 0.495796
0.594991 -0.428828 0.501594
0.592403 -0.444754 0.500518
0.589589 -0.451558 0.498762
0.504065 -0.324373 0.658408
0.500943 -0.337149 0.656214
0.498221 -0.343245 0.653637
0.503158 -0.32383 0.659561
0.500064 -0.336581 0.657296
0.497352 -0.342695 0.6547
0.503178 -0.322802 0.661282
0.500122 -0.335561 0.658962
0.497417 -0.341749 0.656367
0.534013 -0.329972 0.653978
0.530961 -0.342823 0.651687
0.528169 -0.348925 0.649088
0.529622 -0.326172 0.659378
0.526559 -0.339017 0.657043
0.523778 -0.345129 0.654411
0.527263 -0.324757 0.660864
0.524186 -0.337598 0.658529
0.521407 -0.343713 0.655892
0.07991 -0.186375 0.888194
0.079056 -0.196525 0.884401
0.078494 -0.20207 0.88058
0.051874 -0.184727 0.890718
0.051316 -0.194886 0.886914
0.050949 -0.200439 0.883081
0.025517 -0.183925 0.891953
0.025241 -0.194099 0.888144
0.025061 -0.199659 0.884305
0.611955 -0.399173 0.544144
0.608635 -0.412326 0.542577
0.605502 -0.41831 0.540582
0.612947 -0.39694 0.547625
0.609675 -0.409928 0.546073
0.606555 -0.415866 0.544076
0.610482 -0.393516 0.553261
0.607289 -0.406438 0.551715
0.604207 -0.412366 0.549703
0.486295 -0.298343 0.697231
0.483646 -0.31058 0.695016
0.481056 -0.317429 0.692426
0.474319 -0.294066 0.706498
0.471723 -0.305883 0.703978
0.469215 -0.31228 0.701057
0.459802 -0.288796 0.717211
0.457233 -0.30022 0.714394
0.454806 -0.306185 0.711162
0.425273 -0.275133 0.741549
0.422591 -0.286035 0.738372
0.420267 -0.291499 0.734821
0.405721 -0.266912 0.754883
0.402916 -0.277702 0.75166
0.400616 -0.283123 0.748112
0.384546 -0.258042 0.769085
0.381626 -0.268775 0.765851
0.379353 -0.27423 0.762354
0.520845 -0.324609 0.659403
0.517735 -0.33745 0.657157
0.514964 -0.343566 0.654557
0.515747 -0.324664 0.658551
0.512621 -0.337504 0.656363
0.50986 -0.343618 0.653787
0.510603 -0.324679 0.657975
0.507466 -0.337509 0.655828
0.504718 -0.343621 0.653269
0.545629 -0.598403 -0.051847
0.541813 -0.618276 -0.05122
0.538708 -0.62568 -0.050829
0.544053 -0.596302 -0.049037
0.540267 -0.61624 -0.048423
0.537178 -0.623674 -0.048046
0.543713 -0.594445 -0.046925
0.539947 -0.61442 -0.046321
0.536866 -0.621873 -0.045953
0.503889 -0.318683 0.666191
0.500929 -0.331647 0.663945
0.498224 -0.338263 0.661496
0.50408 -0.315795 0.669123
0.501172 -0.328929 0.667008
0.498461 -0.335867 0.664695
0.5042 -0.312823 0.672113
0.501339 -0.326108 0.670147
0.49862 -0.333365 0.667974
0.594651 -0.446359 0.479818
0.5922 -0.464161 0.478693
0.589437 -0.47151 0.47667
0.594405 -0.441031 0.485425
0.591935 -0.458295 0.484327
0.589165 -0.465506 0.482384
0.594192 -0.436549 0.490275
0.591706 -0.453353 0.489201
0.58893 -0.460443 0.487329
0.040383 -0.903542 -0.676675
0.039979 -0.90415 -0.66985
0.039526 -0.905198 -0.662223
0.078026 -0.901654 -0.672907
0.077242 -0.902283 -0.666132
0.076366 -0.903353 -0.658561
0.110187 -0.899394 -0.668333
0.109074 -0.900048 -0.661621
0.107831 -0.901146 -0.654119
0.414055 -0.300331 0.725256
0.409729 -0.306927 0.719156
0.404883 -0.314536 0.712508
0.394768 -0.292002 0.738481
0.390729 -0.298659 0.732269
0.386211 -0.306345 0.725475
0.373834 -0.283281 0.752728
0.37004 -0.290031 0.746419
0.365801 -0.29781 0.739485
0.581012 -0.477197 0.469345
0.575379 -0.480757 0.464652
0.569441 -0.48438 0.460168
0.580719 -0.471527 0.475439
0.574916 -0.475596 0.470723
0.568537 -0.480162 0.465683
0.580476 -0.466716 0.480747
0.574604 -0.471093 0.47619
0.568055 -0.476146 0.471139
0.596768 -0.425605 0.534536
0.590721 -0.430912 0.530486
0.583962 -0.437045 0.526011
0.59781 -0.423228 0.538
0.591752 -0.428595 0.533931
0.584981 -0.434794 0.529436
0.595498 -0.419791 0.543556
0.589464 -0.425204 0.539436
0.582719 -0.431457 0.534885
0.472854 -0.328068 0.684559
0.466801 -0.334921 0.679168
0.459925 -0.342515 0.67317
0.46152 -0.322296 0.692637
0.455919 -0.329037 0.687054
0.449578 -0.336603 0.6809
0.447654 -0.315609 0.702214
0.44253 -0.322251 0.696434
0.436752 -0.329802 0.690111
0.209144 -0.886662 -0.632442
0.206968 -0.887468 -0.626145
0.204535 -0.888737 -0.619107
0.243311 -0.879806 -0.613403
0.240808 -0.880676 -0.607289
0.238011 -0.882015 -0.600456
0.281711 -0.870994 -0.58993
0.278843 -0.871946 -0.58404
0.275637 -0.873378 -0.577458
0.520544 -0.357245 0.641497
0.515268 -0.363294 0.636386
0.509373 -0.370258 0.630726
0.516213 -0.353502 0.646743
0.510982 -0.359589 0.641578
0.505136 -0.366595 0.635859
0.513876 -0.352106 0.648203
0.508668 -0.358208 0.643024
0.502849 -0.365229 0.637289
0.551059 -0.648465 -0.077532
0.545474 -0.651659 -0.076747
0.539233 -0.655595 -0.075869
0.544952 -0.643077 -0.069778
0.539429 -0.646325 -0.069071
0.533257 -0.650323 -0.068281
0.53895 -0.637537 -0.061581
0.533488 -0.640841 -0.060957
0.527384 -0.644902 -0.060259
0.490443 -0.347691 0.654129
0.484886 -0.354087 0.649014
0.478624 -0.361303 0.643298
0.490344 -0.345886 0.657515
0.484452 -0.352445 0.652435
0.477785 -0.359764 0.646732
0.490169 -0.343979 0.660974
0.483942 -0.350702 0.655929
0.476871 -0.358126 0.650236
0.541497 -0.702688 -0.198833
0.53601 -0.705332 -0.196818
0.529877 -0.708654 -0.194566
0.550245 -0.686984 -0.161044
0.544669 -0.689787 -0.159412
0.538437 -0.693288 -0.157588
0.556181 -0.674206 -0.129874
0.550545 -0.677138 -0.128558
0.544246 -0.680783 -0.127087
0.507522 -0.351961 0.646892
0.502378 -0.358064 0.641726
0.49663 -0.365087 0.636005
0.502489 -0.352013 0.646135
0.497397 -0.358115 0.640977
0.491706 -0.365138 0.635265
0.497419 -0.352014 0.645626
0.492378 -0.358117 0.640473
0.486745 -0.365139 0.634767
0.561632 -0.659622 -0.094379
0.555941 -0.662702 -0.093423
0.54958 -0.666512 -0.092354
0.561656 -0.656849 -0.088444
0.555964 -0.659957 -0.087548
0.549603 -0.663799 -0.086546
0.559885 -0.655066 -0.085906
0.554211 -0.658192 -0.085035
0.54787 -0.662054 -0.084062
0.489848 -0.340423 0.667027
0.483172 -0.34738 0.662005
0.475558 -0.354957 0.656307
0.488915 -0.338544 0.6699
0.48219 -0.345546 0.66485
0.474518 -0.35316 0.659124
0.48633 -0.336104 0.673407
0.479689 -0.343103 0.668291
0.472115 -0.350729 0.662511
0.356568 -0.847949 -0.53246
0.352969 -0.849124 -0.52712
0.348947 -0.850805 -0.521151
0.389475 -0.833813 -0.49902
0.385543 -0.835129 -0.494001
0.381149 -0.836968 -0.488393
0.419514 -0.817915 -0.462259
0.415274 -0.819391 -0.457598
0.410535 -0.821409 -0.45239
0.49101 -0.351649 0.64599
0.486029 -0.357757 0.640835
0.480463 -0.364785 0.635125
0.490121 -0.35116 0.647057
0.485116 -0.357287 0.641898
0.479519 -0.364329 0.636181
0.490096 -0.350376 0.64876
0.485 -0.35655 0.643603
0.479293 -0.363623 0.63788
0.584706 -0.44869 0.505465
0.57878 -0.45337 0.501496
0.572158 -0.458785 0.497105
0.587532 -0.441554 0.514523
0.581578 -0.44641 0.510532
0.574924 -0.452027 0.506118
0.590705 -0.434486 0.523372
0.584718 -0.439532 0.519355
0.578029 -0.445366 0.514913
0.472008 -0.780898 -0.378367
0.467227 -0.782749 -0.374538
0.461884 -0.785186 -0.370258
0.494355 -0.760619 -0.332643
0.489346 -0.762676 -0.329274
0.483748 -0.765342 -0.325508
0.51362 -0.740257 -0.286414
0.508415 -0.74252 -0.283512
0.502599 -0.745417 -0.280268
0.326946 -0.264884 0.783846
0.323632 -0.271832 0.777337
0.31993 -0.279807 0.770129
0.30072 -0.255561 0.799903
0.297672 -0.262595 0.793281
0.294266 -0.270661 0.785936
0.272303 -0.246553 0.815351
0.269544 -0.253665 0.808613
0.26646 -0.261816 0.801136
0.580223 -0.461205 0.487582
0.574343 -0.46576 0.483436
0.567772 -0.471037 0.478832
0.580428 -0.459832 0.489871
0.574546 -0.464373 0.485835
0.567972 -0.469632 0.481359
0.581119 -0.457969 0.492901
0.57523 -0.462494 0.488922
0.568649 -0.467735 0.484514
0.14851 -0.896402 -0.661789
0.146982 -0.897097 -0.655176
0.145273 -0.89824 -0.647786
0.157648 -0.895578 -0.659244
0.156006 -0.896288 -0.652669
0.154171 -0.897449 -0.645322
0.167254 -0.894198 -0.654743
0.165498 -0.894928 -0.648222
0.163536 -0.896111 -0.640934
0.208144 -0.230681 0.841616
0.206034 -0.237933 0.834662
0.203677 -0.24624 0.826942
0.173632 -0.224237 0.851717
0.171873 -0.23155 0.84467
0.169906 -0.239926 0.836848
0.139396 -0.218947 0.859779
0.137983 -0.226312 0.852655
0.136404 -0.234746 0.844745
0.530893 -0.629848 -0.050078
0.525513 -0.63323 -0.04957
0.5195 -0.637377 -0.049003
0.529387 -0.627874 -0.047334
0.524022 -0.631276 -0.046855
0.518026 -0.635446 -0.046319
0.52908 -0.6261 -0.045272
0.523718 -0.62952 -0.044813
0.517726 -0.63371 -0.044301
0.575311 -0.402588 0.571091
0.569481 -0.408178 0.566693
0.562965 -0.414628 0.561831
0.559006 -0.389263 0.592084
0.553341 -0.394988 0.587473
0.54701 -0.401589 0.582373
0.542491 -0.375757 0.613192
0.536993 -0.381619 0.608368
0.530849 -0.388373 0.603029
0.07734 -0.212206 0.869917
0.076557 -0.219639 0.86269
0.075681 -0.228149 0.854666
0.0502 -0.210599 0.872382
0.049691 -0.218048 0.86513
0.049123 -0.226576 0.857078
0.024692 -0.209831 0.873588
0.024442 -0.217288 0.866324
0.024162 -0.225825 0.858258
0.530448 -0.619903 -0.039005
0.52508 -0.623388 -0.038619
0.519091 -0.627651 -0.0382
0.531621 -0.614999 -0.034083
0.526294 -0.618543 -0.033813
0.520422 -0.622888 -0.03361
0.532986 -0.609331 -0.028406
0.527775 -0.612959 -0.028354
0.52222 -0.617435 -0.028627
0.72502 0.013064 0.07018
0.72542 0.020231 0.07071
0.725819 0.027363 0.071591
0.737901 0.01225 0.073963
0.738291 0.019215 0.074478
0.738678 0.026147 0.075334
0.750731 0.011437 0.077806
0.75111 0.018203 0.078306
0.751486 0.024937 0.079137
0.726607 0.041455 0.074398
0.726994 0.048381 0.076318
0.727376 0.055205 0.078576
0.739444 0.039844 0.078062
0.73982 0.046576 0.079929
0.740191 0.053208 0.082123
0.75223 0.038241 0.081788
0.752595 0.04478 0.083601
0.752955 0.051222 0.085732
0.728118 0.068479 0.084083
0.728476 0.074898 0.087319
0.728826 0.08115 0.090866
0.740912 0.06611 0.087475
0.741261 0.072348 0.090621
0.741601 0.078426 0.094068
0.753656 0.063755 0.090931
0.753995 0.069815 0.093987
0.754325 0.075718 0.097336
0.729494 0.093097 0.098861
0.72981 0.098762 0.103289
0.730115 0.104203 0.10799
0.74225 0.090037 0.101839
0.742558 0.095543 0.106143
0.742853 0.100832 0.110712
0.754955 0.086998 0.104884
0.755254 0.092346 0.109065
0.755542 0.097484 0.113503
0.730683 0.114363 0.118166
0.730945 0.119057 0.123616
0.731192 0.123478 0.12929
0.743405 0.110707 0.120602
0.74366 0.115269 0.1259
0.7439 0.119566 0.131414
0.756078 0.107076 0.12311
0.756326 0.111507 0.128256
0.756559 0.115681 0.133613
0.731638 0.13146 0.141255
0.731836 0.135002 0.147518
0.732017 0.138234 0.153946
0.744334 0.127325 0.143044
0.744527 0.130767 0.149131
0.744702 0.133908 0.155379
0.75698 0.123218 0.144909
0.757167 0.126562 0.150822
0.757338 0.129612 0.156892
0.732325 0.143732 0.167241
0.73245 0.145986 0.174076
0.732558 0.147903 0.181012
0.745001 0.139252 0.168301
0.745124 0.141443 0.174944
0.745228 0.143306 0.181686
0.757628 0.134804 0.169444
0.757747 0.136932 0.175896
0.757848 0.138741 0.182445
0.732714 0.150706 0.195126
0.732763 0.151585 0.202269
0.732793 0.152114 0.209447
0.74538 0.14603 0.195404
0.745428 0.146885 0.202347
0.745456 0.147399 0.209323
0.757996 0.141388 0.19577
0.758043 0.142218 0.202515
0.75807 0.142718 0.209292
0.732793 0.152114 0.223838
0.732764 0.151585 0.231016
0.732714 0.150706 0.238159
0.745456 0.147399 0.22331
0.745428 0.146885 0.230287
0.74538 0.14603 0.237229
0.75807 0.142718 0.222878
0.758043 0.142218 0.229655
0.757996 0.141388 0.236399
0.732558 0.147903 0.252273
0.73245 0.145986 0.259209
0.732324 0.143732 0.266044
0.745228 0.143306 0.250947
0.745124 0.141443 0.25769
0.745001 0.139252 0.264332
0.757848 0.138741 0.249724
0.757747 0.136932 0.256273
0.757628 0.134804 0.262726
0.732017 0.138234 0.279339
0.731836 0.135002 0.285767
0.731638 0.13146 0.29203
0.744702 0.133908 0.277254
0.744527 0.130767 0.283503
0.744334 0.127325 0.289589
0.757338 0.129612 0.275278
0.757167 0.126562 0.281348
0.75698 0.123218 0.28726
0.731192 0.123478 0.303995
0.730945 0.119057 0.309669
0.730683 0.114363 0.315119
0.743901 0.119566 0.301219
0.74366 0.115269 0.306734
0.743405 0.110707 0.312031
0.756559 0.115681 0.298557
0.756326 0.111507 0.303914
0.756078 0.107076 0.309059
0.730115 0.104203 0.325295
0.72981 0.098762 0.329995
0.729494 0.093097 0.334424
0.742853 0.100832 0.321921
0.742558 0.095543 0.32649
0.74225 0.090037 0.330794
0.755542 0.097484 0.318666
0.755254 0.092346 0.323105
0.754956 0.086998 0.327286
0.728826 0.08115 0.342419
0.728476 0.074898 0.345966
0.728118 0.068479 0.349202
0.741601 0.078426 0.338565
0.741261 0.072348 0.342013
0.740912 0.06611 0.345158
0.754325 0.075718 0.334834
0.753995 0.069815 0.338183
0.753656 0.063755 0.341238
0.727376 0.055205 0.354709
0.726994 0.048381 0.356967
0.726607 0.041455 0.358887
0.740191 0.053208 0.350511
0.73982 0.046576 0.352705
0.739444 0.039844 0.354571
0.752955 0.051222 0.346438
0.752595 0.04478 0.348569
0.75223 0.038241 0.350382
0.725819 0.027363 0.361694
0.72542 0.020231 0.362575
0.72502 0.013064 0.363104
0.738678 0.026147 0.357299
0.738291 0.019215 0.358156
0.737901 0.01225 0.35867
0.751486 0.024937 0.353032
0.75111 0.018203 0.353864
0.750731 0.011437 0.354364
0.724216 -0.001304 0.363104
0.723816 -0.00847 0.362575
0.723417 -0.015602 0.361694
0.73712 -0.001715 0.35867
0.736731 -0.008681 0.358155
0.736344 -0.015613 0.357299
0.749973 -0.002129 0.354364
0.749595 -0.008895 0.353864
0.749218 -0.015629 0.353032
0.722629 -0.029694 0.358887
0.722242 -0.03662 0.356967
0.721861 -0.043444 0.354709
0.735578 -0.02931 0.354571
0.735202 -0.036041 0.352705
0.734831 -0.042673 0.350511
0.748475 -0.028933 0.350382
0.748109 -0.035472 0.348569
0.747749 -0.041914 0.346438
0.721119 -0.056718 0.349202
0.72076 -0.063137 0.345966
0.72041 -0.069389 0.342419
0.73411 -0.055575 0.345158
0.733761 -0.061814 0.342013
0.733421 -0.067891 0.338565
0.747048 -0.054447 0.341238
0.746709 -0.060507 0.338183
0.74638 -0.06641 0.334834
0.719742 -0.081336 0.334424
0.719426 -0.087001 0.329995
0.719122 -0.092443 0.325294
0.732772 -0.079503 0.330794
0.732464 -0.085009 0.32649
0.732168 -0.090298 0.321921
0.745749 -0.07769 0.327286
0.74545 -0.083038 0.323105
0.745163 -0.088176 0.318666
0.718554 -0.102602 0.315119
0.718291 -0.107296 0.309669
0.718044 -0.111717 0.303995
0.731616 -0.100173 0.312031
0.731361 -0.104735 0.306734
0.731121 -0.109032 0.301219
0.744626 -0.097768 0.309059
0.744379 -0.102199 0.303914
0.744146 -0.106373 0.298557
0.717598 -0.1197 0.29203
0.7174 -0.123241 0.285767
0.717219 -0.126473 0.279339
0.730687 -0.11679 0.289589
0.730495 -0.120233 0.283503
0.730319 -0.123373 0.277254
0.743724 -0.11391 0.28726
0.743537 -0.117254 0.281348
0.743367 -0.120304 0.275278
0.716912 -0.131971 0.266044
0.716786 -0.134225 0.259209
0.716679 -0.136142 0.252273
0.730021 -0.128718 0.264332
0.729898 -0.130908 0.25769
0.729794 -0.132771 0.250947
0.743076 -0.125496 0.262726
0.742958 -0.127624 0.256273
0.742856 -0.129433 0.249724
0.716522 -0.138945 0.238159
0.716473 -0.139824 0.231016
0.716443 -0.140353 0.223838
0.729642 -0.135496 0.237229
0.729594 -0.136351 0.230287
0.729565 -0.136865 0.22331
0.742708 -0.13208 0.236399
0.742662 -0.13291 0.229655
0.742634 -0.13341 0.222878
0.716443 -0.140353 0.209447
0.716473 -0.139824 0.202269
0.716522 -0.138945 0.195126
0.729565 -0.136865 0.209323
0.729594 -0.136351 0.202347
0.729642 -0.135496 0.195404
0.742634 -0.13341 0.209292
0.742662 -0.13291 0.202515
0.742708 -0.13208 0.19577
0.716679 -0.136142 0.181012
0.716786 -0.134225 0.174076
0.716912 -0.131971 0.167241
0.729794 -0.132771 0.181686
0.729898 -0.130908 0.174944
0.730021 -0.128718 0.168301
0.742856 -0.129433 0.182445
0.742957 -0.127624 0.175896
0.743076 -0.125496 0.169444
0.717219 -0.126473 0.153946
0.7174 -0.123241 0.147518
0.717598 -0.1197 0.141255
0.730319 -0.123373 0.155379
0.730495 -0.120233 0.149131
0.730687 -0.11679 0.143044
0.743367 -0.120304 0.156892
0.743537 -0.117254 0.150822
0.743724 -0.11391 0.144909
0.718044 -0.111717 0.12929
0.718291 -0.107296 0.123616
0.718554 -0.102602 0.118166
0.731121 -0.109032 0.131414
0.731361 -0.104735 0.1259
0.731616 -0.100173 0.120602
0.744145 -0.106373 0.133613
0.744379 -0.102199 0.128256
0.744627 -0.097768 0.12311
0.719122 -0.092443 0.10799
0.719426 -0.087001 0.103289
0.719742 -0.081336 0.098861
0.732168 -0.090298 0.110712
0.732464 -0.085009 0.106143
0.732772 -0.079503 0.101839
0.745163 -0.088176 0.113503
0.74545 -0.083038 0.109065
0.745749 -0.07769 0.104884
0.72041 -0.069389 0.090866
0.72076 -0.063137 0.087319
0.721119 -0.056718 0.084083
0.733421 -0.067891 0.094068
0.733761 -0.061814 0.090621
0.73411 -0.055575 0.087475
0.74638 -0.06641 0.097336
0.74671 -0.060507 0.093987
0.747048 -0.054447 0.090931
0.721861 -0.043444 0.078576
0.722242 -0.03662 0.076318
0.722629 -0.029694 0.074398
0.734831 -0.042673 0.082123
0.735202 -0.036041 0.079929
0.735578 -0.02931 0.078062
0.747749 -0.041914 0.085732
0.748109 -0.035472 0.083601
0.748475 -0.028933 0.081788
0.723417 -0.015602 0.071591
0.723816 -0.00847 0.07071
0.724216 -0.001303 0.07018
0.736344 -0.015613 0.075334
0.736731 -0.008681 0.074478
0.737121 -0.001715 0.073963
0.749218 -0.015629 0.079137
0.749595 -0.008895 0.078306
0.749973 -0.002129 0.077806
0.76276 -0.085392 0.314422
0.766312 -0.084701 0.313425
0.767711 -0.083974 0.312532
0.763036 -0.080454 0.318687
0.766586 -0.079811 0.317649
0.767982 -0.079128 0.316718
0.763323 -0.075314 0.322705
0.76687 -0.07472 0.321628
0.768264 -0.074083 0.320662
0.763323 -0.075314 0.108968
0.76687 -0.07472 0.109949
0.768264 -0.074083 0.11088
0.763036 -0.080454 0.112986
0.766586 -0.079811 0.113928
0.767982 -0.079128 0.114824
0.76276 -0.085392 0.117251
0.766313 -0.084701 0.118152
0.767711 -0.083974 0.11901
0.774951 0.132685 0.183508
0.778386 0.131277 0.183771
0.779677 0.130067 0.18404
0.774854 0.130946 0.177214
0.77829 0.129554 0.177537
0.779582 0.12836 0.177863
0.77474 0.128901 0.171013
0.778177 0.127529 0.171396
0.779469 0.126353 0.171776
0.768112 0.01034 0.348729
0.771613 0.010109 0.347401
0.772964 0.009986 0.346204
0.768475 0.016843 0.348248
0.771973 0.016549 0.346925
0.773321 0.016368 0.345732
0.768837 0.023314 0.347449
0.772331 0.022958 0.346134
0.773676 0.02272 0.344947
0.760401 -0.127585 0.196314
0.763977 -0.126488 0.196454
0.765396 -0.125387 0.196609
0.760357 -0.128383 0.202795
0.763932 -0.127279 0.202873
0.765353 -0.12617 0.202971
0.76033 -0.128863 0.209308
0.763906 -0.127754 0.209323
0.765326 -0.126641 0.209363
0.771565 0.072118 0.101714
0.775033 0.071292 0.102765
0.776354 0.07062 0.10376
0.771248 0.066444 0.098495
0.774719 0.065673 0.099577
0.776042 0.065052 0.100601
0.770922 0.06062 0.095559
0.774396 0.059905 0.096669
0.775723 0.059336 0.097719
0.77325 0.102253 0.305189
0.776701 0.101138 0.304281
0.778007 0.100198 0.30347
0.773488 0.106512 0.300244
0.776937 0.105355 0.299383
0.778241 0.104378 0.298616
0.773712 0.110524 0.295096
0.777159 0.109328 0.294285
0.778461 0.108316 0.293563
0.761782 -0.10288 0.295096
0.765344 -0.102021 0.294285
0.766752 -0.101139 0.293563
0.762007 -0.098869 0.300244
0.765566 -0.098048 0.299383
0.766972 -0.097202 0.298616
0.762245 -0.09461 0.305189
0.765802 -0.09383 0.304281
0.767206 -0.093022 0.30347
0.764572 -0.052977 0.095559
0.768107 -0.052598 0.096669
0.76949 -0.052159 0.097719
0.764247 -0.058801 0.098495
0.767785 -0.058366 0.099577
0.76917 -0.057875 0.100601
0.763929 -0.064474 0.101714
0.767471 -0.063985 0.102765
0.768859 -0.063444 0.10376
0.775165 0.136506 0.209308
0.778598 0.135061 0.209323
0.779887 0.133818 0.209363
0.775138 0.136027 0.202795
0.778571 0.134586 0.202873
0.77986 0.133347 0.202971
0.775093 0.135229 0.196314
0.778527 0.133796 0.196454
0.779817 0.132563 0.196609
0.766658 -0.015671 0.347449
0.770173 -0.015651 0.346134
0.771537 -0.015544 0.344947
0.767019 -0.0092 0.348248
0.770531 -0.009242 0.346925
0.771892 -0.009192 0.345732
0.767383 -0.002697 0.348729
0.770891 -0.002802 0.347401
0.772249 -0.00281 0.346204
0.760755 -0.121258 0.171013
0.764327 -0.120221 0.171396
0.765743 -0.119176 0.171776
0.760641 -0.123303 0.177214
0.764214 -0.122247 0.177537
0.765631 -0.121184 0.177863
0.760543 -0.125042 0.183508
0.764117 -0.123969 0.183771
0.765536 -0.122891 0.18404
0.772735 0.093035 0.117251
0.776191 0.092008 0.118152
0.777501 0.09115 0.11901
0.772458 0.088097 0.112986
0.775918 0.087118 0.113928
0.777231 0.086304 0.114824
0.772171 0.082957 0.108968
0.775633 0.082027 0.109949
0.776949 0.081259 0.11088
0.772171 0.082957 0.322705
0.775633 0.082027 0.321628
0.776948 0.081259 0.320662
0.772458 0.088097 0.318687
0.775918 0.087118 0.317649
0.777231 0.086304 0.316718
0.772735 0.093035 0.314422
0.776191 0.092008 0.313425
0.777501 0.09115 0.312532
0.761034 -0.116269 0.272724
0.764603 -0.115281 0.272128
0.766017 -0.11428 0.271605
0.761198 -0.113337 0.278557
0.764765 -0.112377 0.277905
0.766178 -0.111402 0.27733
0.761377 -0.110123 0.284239
0.764943 -0.109194 0.283533
0.766354 -0.108248 0.282908
0.765943 -0.028457 0.086772
0.769465 -0.028314 0.087966
0.770835 -0.028093 0.089094
0.765591 -0.034741 0.088514
0.769117 -0.034538 0.089691
0.770491 -0.034261 0.090804
0.765245 -0.040933 0.090562
0.768774 -0.04067 0.09172
0.770151 -0.040338 0.092815
0.775093 0.135229 0.235359
0.778527 0.133796 0.235123
0.779817 0.132564 0.234932
0.775138 0.136027 0.228878
0.778571 0.134586 0.228704
0.77986 0.133347 0.228571
0.775165 0.136506 0.222365
0.778598 0.135061 0.222254
0.779887 0.133818 0.222179
0.765245 -0.040933 0.341111
0.768774 -0.04067 0.339857
0.770151 -0.040338 0.338727
0.765591 -0.034741 0.343159
0.769117 -0.034538 0.341886
0.770491 -0.034261 0.340738
0.765943 -0.028457 0.344902
0.769465 -0.028314 0.343611
0.770835 -0.028093 0.342447
0.761377 -0.110123 0.147434
0.764943 -0.109194 0.148044
0.766355 -0.108248 0.148634
0.761198 -0.113337 0.153116
0.764765 -0.112377 0.153672
0.766178 -0.111402 0.154211
0.761034 -0.116269 0.158949
0.764603 -0.115281 0.159449
0.766017 -0.11428 0.159936
0.773712 0.110524 0.136577
0.777159 0.109328 0.137292
0.778461 0.108316 0.137978
0.773488 0.106512 0.131429
0.776937 0.105355 0.132194
0.778241 0.104378 0.132925
0.77325 0.102253 0.126484
0.776701 0.101138 0.127296
0.778007 0.100198 0.128072
0.770923 0.06062 0.336114
0.774396 0.059905 0.334908
0.775723 0.059336 0.333823
0.771248 0.066444 0.333178
0.774719 0.065673 0.332
0.776042 0.065052 0.330941
0.771565 0.072118 0.329959
0.775033 0.071292 0.328813
0.776354 0.07062 0.327782
0.760543 -0.125042 0.248166
0.764117 -0.123969 0.247806
0.765536 -0.122891 0.247502
0.760641 -0.123303 0.25446
0.764214 -0.122247 0.25404
0.765631 -0.121184 0.253679
0.760755 -0.121258 0.260661
0.764327 -0.120221 0.260181
0.765744 -0.119176 0.259765
0.768837 0.023314 0.084224
0.772331 0.022958 0.085443
0.773676 0.02272 0.086594
0.768475 0.016843 0.083425
0.771973 0.016549 0.084652
0.773321 0.016368 0.08581
0.768112 0.01034 0.082945
0.771613 0.010109 0.084176
0.772964 0.009986 0.085338
0.767383 -0.002697 0.082945
0.770891 -0.002802 0.084176
0.772249 -0.002809 0.085338
0.767019 -0.009199 0.083425
0.770531 -0.009242 0.084652
0.771892 -0.009192 0.08581
0.766658 -0.015671 0.084224
0.770172 -0.015651 0.085443
0.771537 -0.015543 0.086594
0.77474 0.128901 0.260661
0.778177 0.127529 0.260181
0.779469 0.126353 0.259765
0.774854 0.130946 0.25446
0.77829 0.129554 0.25404
0.779582 0.12836 0.253679
0.774951 0.132685 0.248166
0.778386 0.131277 0.247806
0.779677 0.130067 0.247502
0.763929 -0.064474 0.329959
0.767471 -0.063985 0.328813
0.768859 -0.063444 0.327782
0.764247 -0.058801 0.333178
0.767785 -0.058366 0.332
0.76917 -0.057875 0.330941
0.764572 -0.052977 0.336114
0.768107 -0.052598 0.334908
0.76949 -0.052159 0.333823
0.762245 -0.09461 0.126484
0.765802 -0.09383 0.127296
0.767206 -0.093022 0.128072
0.762007 -0.098869 0.131429
0.765566 -0.098048 0.132194
0.766972 -0.097202 0.132926
0.761782 -0.10288 0.136577
0.765344 -0.102021 0.137292
0.766752 -0.101139 0.137978
0.774461 0.123912 0.158949
0.7779 0.122588 0.159449
0.779196 0.121456 0.159936
0.774297 0.12098 0.153116
0.777738 0.119684 0.153672
0.779035 0.118579 0.154211
0.774117 0.117766 0.147434
0.77756 0.116501 0.148044
0.778858 0.115424 0.148634
0.769552 0.0361 0.344902
0.773039 0.035622 0.343611
0.774377 0.03527 0.342447
0.769903 0.042384 0.343159
0.773387 0.041845 0.341886
0.774722 0.041437 0.340738
0.770249 0.048576 0.341111
0.77373 0.047977 0.339857
0.775062 0.047514 0.338727
0.76033 -0.128863 0.222365
0.763906 -0.127754 0.222254
0.765326 -0.126641 0.222179
0.760357 -0.128383 0.228878
0.763932 -0.127279 0.228704
0.765353 -0.12617 0.228571
0.760401 -0.127585 0.235359
0.763977 -0.126488 0.235123
0.765396 -0.125387 0.234932
0.770249 0.048576 0.090562
0.77373 0.047977 0.09172
0.775062 0.047514 0.092815
0.769903 0.042384 0.088514
0.773387 0.041845 0.089691
0.774722 0.041437 0.090804
0.769552 0.0361 0.086772
0.773039 0.035622 0.087966
0.774378 0.03527 0.089094
0.774117 0.117766 0.284239
0.77756 0.116501 0.283533
0.778858 0.115424 0.282908
0.774297 0.12098 0.278557
0.777738 0.119684 0.277905
0.779035 0.118579 0.27733
0.774461 0.123912 0.272724
0.7779 0.122588 0.272128
0.779195 0.121456 0.271605
0.771449 -0.027001 0.093576
0.771768 -0.02615 0.097038
0.77209 -0.025263 0.100648
0.771116 -0.03295 0.095225
0.771445 -0.031931 0.09864
0.771776 -0.030868 0.102201
0.770789 -0.038812 0.097165
0.771127 -0.037627 0.100524
0.771468 -0.03639 0.104028
0.770789 -0.038812 0.334372
0.771127 -0.037627 0.331012
0.771468 -0.03639 0.327508
0.771116 -0.03295 0.336311
0.771445 -0.031931 0.332897
0.771776 -0.030868 0.329335
0.771449 -0.027001 0.33796
0.771768 -0.02615 0.334499
0.77209 -0.025263 0.330889
0.778805 0.104579 0.14073
0.778916 0.101702 0.142855
0.77902 0.098702 0.145072
0.778592 0.100781 0.135856
0.778709 0.098012 0.138119
0.77882 0.095124 0.14048
0.778367 0.096749 0.131174
0.77849 0.094094 0.13357
0.778607 0.091325 0.13607
0.772812 -0.002612 0.089953
0.773093 -0.002453 0.093517
0.773374 -0.002286 0.097234
0.772468 -0.008769 0.090408
0.772759 -0.008435 0.093959
0.77305 -0.008086 0.097663
0.772126 -0.014896 0.091165
0.772426 -0.014388 0.094694
0.772727 -0.013858 0.098376
0.769543 -0.0611 0.323814
0.769916 -0.059284 0.320753
0.770294 -0.057389 0.317561
0.769843 -0.055729 0.326861
0.770208 -0.054065 0.323714
0.770577 -0.052328 0.320432
0.770151 -0.050215 0.329641
0.770507 -0.048707 0.326416
0.770867 -0.047133 0.323051
0.779513 0.117254 0.16191
0.779604 0.114019 0.163436
0.779687 0.110644 0.165027
0.779358 0.114479 0.156388
0.779453 0.111321 0.15807
0.779541 0.108029 0.159824
0.779188 0.111436 0.151008
0.779288 0.108365 0.152843
0.779381 0.105163 0.154756
0.768436 -0.080904 0.309104
0.76884 -0.078526 0.30646
0.769251 -0.076046 0.303702
0.768697 -0.076229 0.313142
0.769094 -0.073984 0.310384
0.769497 -0.071642 0.307507
0.768969 -0.071363 0.316946
0.769359 -0.069256 0.31408
0.769753 -0.067057 0.311091
0.779978 0.125561 0.185161
0.780055 0.122089 0.186028
0.780125 0.11847 0.186932
0.779885 0.123914 0.179202
0.779966 0.120489 0.180238
0.780038 0.116918 0.181318
0.779777 0.121978 0.173331
0.779861 0.118608 0.174533
0.779936 0.115094 0.175787
0.76751 -0.097461 0.290807
0.767941 -0.094615 0.288681
0.768379 -0.091645 0.286464
0.767722 -0.093663 0.295681
0.768147 -0.090924 0.293417
0.768579 -0.088067 0.291056
0.767948 -0.089631 0.300363
0.768366 -0.087007 0.297966
0.768791 -0.084268 0.295467
0.78018 0.129178 0.209587
0.780252 0.125605 0.209762
0.780315 0.121878 0.209945
0.780154 0.128724 0.203421
0.780227 0.125163 0.203771
0.780291 0.12145 0.204136
0.780112 0.127968 0.197285
0.780186 0.124429 0.197809
0.780252 0.120738 0.198355
0.766801 -0.110137 0.269626
0.767252 -0.106931 0.268101
0.767711 -0.103587 0.266509
0.766957 -0.107361 0.275149
0.767403 -0.104234 0.273467
0.767857 -0.100972 0.271712
0.767127 -0.104318 0.280528
0.767568 -0.101278 0.278694
0.768018 -0.098106 0.276781
0.780112 0.127968 0.234252
0.780186 0.124429 0.233728
0.780252 0.120738 0.233182
0.780154 0.128724 0.228115
0.780227 0.125163 0.227765
0.780291 0.12145 0.227401
0.78018 0.129178 0.221949
0.780252 0.125605 0.221774
0.780315 0.121878 0.221591
0.766337 -0.118443 0.246376
0.766801 -0.115002 0.245509
0.767274 -0.111413 0.244604
0.766429 -0.116796 0.252335
0.766891 -0.113402 0.251299
0.767361 -0.109861 0.250218
0.766537 -0.11486 0.258205
0.766996 -0.111521 0.257003
0.767462 -0.108037 0.255749
0.779777 0.121978 0.258205
0.779861 0.118608 0.257003
0.779936 0.115094 0.255749
0.779885 0.123914 0.252335
0.779966 0.120489 0.251299
0.780038 0.116918 0.250218
0.779977 0.12556 0.246376
0.780055 0.122089 0.245509
0.780125 0.11847 0.244605
0.766135 -0.12206 0.221949
0.766605 -0.118517 0.221774
0.767083 -0.114821 0.221591
0.76616 -0.121606 0.228115
0.766629 -0.118076 0.227765
0.767107 -0.114393 0.227401
0.766202 -0.120851 0.234252
0.76667 -0.117342 0.233728
0.767147 -0.113681 0.233182
0.779188 0.111436 0.280528
0.779288 0.108365 0.278694
0.779381 0.105163 0.276781
0.779358 0.114479 0.275149
0.779453 0.111321 0.273467
0.779541 0.108029 0.271712
0.779513 0.117254 0.269626
0.779604 0.114019 0.268101
0.779687 0.110644 0.266509
0.766202 -0.120851 0.197285
0.76667 -0.117342 0.197809
0.767147 -0.113681 0.198355
0.76616 -0.121606 0.203421
0.766629 -0.118076 0.203771
0.767107 -0.114393 0.204136
0.766135 -0.12206 0.209587
0.766605 -0.118517 0.209762
0.767083 -0.114821 0.209945
0.778367 0.096749 0.300363
0.77849 0.094094 0.297966
0.778607 0.091325 0.295467
0.778592 0.100781 0.295681
0.778709 0.098012 0.293417
0.77882 0.095124 0.291056
0.778804 0.104579 0.290807
0.778916 0.101702 0.288681
0.77902 0.098702 0.286464
0.766537 -0.11486 0.173331
0.766996 -0.111521 0.174533
0.767462 -0.108037 0.175787
0.766429 -0.116796 0.179202
0.766891 -0.113402 0.180238
0.767361 -0.109861 0.181318
0.766337 -0.118443 0.185161
0.766801 -0.115002 0.186028
0.767274 -0.111413 0.186932
0.777346 0.07848 0.316946
0.777498 0.076343 0.31408
0.777645 0.074114 0.311091
0.777618 0.083347 0.313142
0.777762 0.081072 0.310384
0.777902 0.078699 0.307507
0.777879 0.088021 0.309104
0.778016 0.085614 0.30646
0.778148 0.083103 0.303702
0.767127 -0.104318 0.151008
0.767568 -0.101278 0.152843
0.768018 -0.098106 0.154756
0.766957 -0.107361 0.156388
0.767403 -0.104234 0.15807
0.767857 -0.100972 0.159824
0.766801 -0.110137 0.16191
0.767252 -0.106931 0.163436
0.767711 -0.103587 0.165027
0.776163 0.057333 0.329641
0.776349 0.055794 0.326416
0.776531 0.05419 0.323051
0.776472 0.062847 0.326861
0.776649 0.061152 0.323714
0.776822 0.059385 0.320432
0.776772 0.068218 0.323814
0.776941 0.066371 0.320753
0.777105 0.064446 0.317561
0.774189 0.022013 0.091165
0.774431 0.021475 0.094694
0.774671 0.020915 0.098376
0.773846 0.015887 0.090408
0.774098 0.015522 0.093959
0.774349 0.015143 0.097663
0.773502 0.00973 0.089953
0.773764 0.00954 0.093517
0.774024 0.009343 0.097234
0.767948 -0.089631 0.131174
0.768366 -0.087007 0.13357
0.768791 -0.084268 0.13607
0.767722 -0.093663 0.135856
0.768147 -0.090924 0.138119
0.768579 -0.088067 0.14048
0.76751 -0.097461 0.14073
0.767941 -0.094615 0.142855
0.768379 -0.091645 0.145072
0.774866 0.034119 0.33796
0.775088 0.033238 0.334499
0.775309 0.03232 0.330889
0.775198 0.040068 0.336311
0.775411 0.039019 0.332897
0.775622 0.037925 0.329335
0.775526 0.04593 0.334372
0.77573 0.044714 0.331012
0.775931 0.043447 0.327508
0.775526 0.04593 0.097165
0.77573 0.044714 0.100524
0.775931 0.043447 0.104028
0.775198 0.040068 0.095225
0.775411 0.039019 0.09864
0.775622 0.037925 0.102201
0.774866 0.034119 0.093576
0.775088 0.033238 0.097038
0.775309 0.03232 0.100648
0.768969 -0.071363 0.114591
0.769359 -0.069256 0.117457
0.769753 -0.067057 0.120446
0.768697 -0.076229 0.118395
0.769094 -0.073984 0.121153
0.769497 -0.071642 0.12403
0.768436 -0.080904 0.122433
0.76884 -0.078526 0.125077
0.769251 -0.076046 0.127834
0.773502 0.00973 0.341584
0.773764 0.00954 0.33802
0.774024 0.009343 0.334303
0.773846 0.015887 0.341129
0.774098 0.015522 0.337578
0.774349 0.015143 0.333874
0.774189 0.022013 0.340372
0.774431 0.021475 0.336842
0.774671 0.020915 0.333161
0.776772 0.068218 0.107723
0.776941 0.066371 0.110783
0.777105 0.064446 0.113975
0.776472 0.062847 0.104675
0.776649 0.061152 0.107822
0.776822 0.059385 0.111105
0.776163 0.057333 0.101895
0.776349 0.055794 0.105121
0.776531 0.05419 0.108485
0.770151 -0.050215 0.101895
0.770507 -0.048707 0.105121
0.770867 -0.047133 0.108485
0.769843 -0.055729 0.104675
0.770208 -0.054065 0.107822
0.770577 -0.052328 0.111105
0.769543 -0.0611 0.107723
0.769916 -0.059284 0.110783
0.770294 -0.057389 0.113975
0.772126 -0.014896 0.340372
0.772426 -0.014388 0.336842
0.772727 -0.013858 0.333161
0.772468 -0.008769 0.341129
0.772759 -0.008435 0.337578
0.77305 -0.008086 0.333874
0.772812 -0.002612 0.341584
0.773093 -0.002453 0.33802
0.773374 -0.002286 0.334303
0.777879 0.088021 0.122433
0.778016 0.085614 0.125077
0.778148 0.083103 0.127834
0.777618 0.083347 0.118395
0.777762 0.081072 0.121153
0.777902 0.078699 0.12403
0.777346 0.07848 0.114591
0.777498 0.076343 0.117457
0.777645 0.074114 0.120446
0.768896 -0.086968 0.282981
0.768281 -0.085124 0.281653
0.766282 -0.082885 0.280111
0.769086 -0.083566 0.287347
0.768467 -0.081791 0.285932
0.766464 -0.079632 0.284286
0.769288 -0.079955 0.29154
0.768665 -0.078252 0.290041
0.766657 -0.076179 0.288296
0.780244 0.116028 0.210235
0.779401 0.113808 0.210363
0.777135 0.111244 0.210542
0.780221 0.115621 0.204712
0.779379 0.113409 0.204951
0.777113 0.110854 0.205261
0.780183 0.114944 0.199216
0.779342 0.112746 0.199565
0.777077 0.110207 0.200005
0.768261 -0.098321 0.26401
0.767659 -0.09625 0.263062
0.765675 -0.093743 0.261969
0.7684 -0.095835 0.268957
0.767795 -0.093814 0.26791
0.765808 -0.091365 0.266699
0.768553 -0.09311 0.273775
0.767944 -0.091143 0.272632
0.765954 -0.088759 0.271307
0.780183 0.114944 0.232326
0.779342 0.112746 0.232012
0.777077 0.110207 0.231669
0.780221 0.115621 0.22683
0.779379 0.113409 0.226626
0.777113 0.110854 0.226412
0.780244 0.116028 0.221307
0.779401 0.113808 0.221214
0.777135 0.111244 0.221131
0.767846 -0.105761 0.243185
0.767251 -0.103541 0.242654
0.765278 -0.100857 0.242054
0.767928 -0.104286 0.248522
0.767332 -0.102096 0.247885
0.765356 -0.099447 0.247158
0.768025 -0.102552 0.253781
0.767427 -0.100396 0.253038
0.765449 -0.097788 0.252186
0.779884 0.109578 0.253781
0.779048 0.107488 0.253038
0.77679 0.105076 0.252186
0.77998 0.111312 0.248522
0.779143 0.109187 0.247885
0.776883 0.106734 0.247158
0.780063 0.112787 0.243185
0.779224 0.110633 0.242654
0.776961 0.108145 0.242054
0.767664 -0.109001 0.221307
0.767074 -0.106716 0.221214
0.765105 -0.103956 0.221131
0.767687 -0.108594 0.22683
0.767096 -0.106318 0.226626
0.765126 -0.103567 0.226412
0.767725 -0.107918 0.232326
0.767133 -0.105654 0.232012
0.765162 -0.10292 0.231669
0.779356 0.100136 0.273775
0.778531 0.098235 0.272632
0.776285 0.096047 0.271307
0.779508 0.102862 0.268956
0.77868 0.100905 0.26791
0.776431 0.098653 0.266699
0.779647 0.105348 0.26401
0.778816 0.103342 0.263062
0.776564 0.10103 0.261969
0.767725 -0.107918 0.199216
0.767133 -0.105654 0.199565
0.765162 -0.10292 0.200005
0.767687 -0.108594 0.204712
0.767096 -0.106318 0.204951
0.765126 -0.103567 0.205261
0.767664 -0.109001 0.210235
0.767074 -0.106716 0.210363
0.765105 -0.103956 0.210542
0.77862 0.086981 0.29154
0.77781 0.085343 0.290041
0.775582 0.083466 0.288296
0.778822 0.090593 0.287347
0.778008 0.088882 0.285932
0.775775 0.08692 0.284286
0.779012 0.093995 0.282981
0.778194 0.092216 0.281653
0.775957 0.090173 0.280111
0.768025 -0.102552 0.177761
0.767427 -0.100396 0.178539
0.765449 -0.097788 0.179487
0.767928 -0.104286 0.183019
0.767332 -0.102096 0.183693
0.765356 -0.099447 0.184516
0.767846 -0.105761 0.188356
0.767251 -0.103541 0.188923
0.765278 -0.100857 0.18962
0.777706 0.070619 0.306394
0.776914 0.069308 0.304597
0.774707 0.067818 0.302501
0.777949 0.074978 0.302986
0.777153 0.07358 0.301258
0.77494 0.071987 0.299243
0.778183 0.079164 0.299369
0.777382 0.077683 0.297714
0.775164 0.075991 0.295784
0.768553 -0.09311 0.157767
0.767944 -0.091143 0.158945
0.765954 -0.088759 0.160366
0.7684 -0.095835 0.162585
0.767795 -0.093814 0.163667
