# Exported by Aspose.3D
VERSION .7
FIELDS x y z
SIZE 4 4 4
TYPE F F F
COUNT 1 1 1
WIDTH 844
HEIGHT 1
VIEWPOINT 0 0 0 1 0 0 0
POINTS 844
DATA ascii
1.3669231770213681 1.591331361323181 0.6399887159440968
1.3617361588670696 1.5980718375803113 0.6495052688080076
1.3528958349359288 1.6022529877692377 0.632865321157036
1.361110917292942 1.592787758264195 0.6615735490700587
1.3492262869623843 1.5972031985120345 0.6754002357238343
1.337552798409262 1.6022609451001795 0.6701734019501346
1.3392233884032663 1.6016007079429044 0.678387734342099
1.3349389677810355 1.5978644038698233 0.687051407102747
1.343775754490917 1.5901188027041608 0.6852846496840967
1.3135852876777103 1.602276014664774 0.6838554340502816
1.3201578555978073 1.5980818578129448 0.6949519755701732
1.3034717225523664 1.589193404688218 0.7022091197402929
1.2771225808927462 1.601787795518829 0.6881254615691262
1.2957412771166554 1.5961472088894053 0.7000812476879896
1.2913363791118284 1.589051200517205 0.7018130816425925
1.2680201763907097 1.6018200914191045 0.682296504282666
1.2604083250350362 1.5956187301653721 0.687818091879308
1.2670524284762419 1.592858004348592 0.6935525829220525
1.238864696084097 1.5938814355010704 0.6654328767562003
1.2515371932427686 1.5983538650427154 0.6795722857561745
1.249389643535608 1.6021317435705151 0.6576827001023563
1.2329666688645005 1.5912650874357839 0.6545529480366716
1.2342884614930005 1.598263648890017 0.6438549523392256
1.2523280703894653 1.602781807343582 0.6440654491437603
1.2339309240439733 1.5947856920552184 0.6112569407609129
1.2343136328789561 1.5997312377716826 0.6266344113482
1.2484578669270994 1.602411693505904 0.6197195362318303
1.2401902287154731 1.5935874696477572 0.5978110224106421
1.2512351422255423 1.5979728353987679 0.5857844895603571
1.2535673629899198 1.6020678744515728 0.6001707945971002
1.2574378810051678 1.5938410907325948 0.5785995021864133
1.2553893993932 1.6005108430591184 0.5850119065819557
1.26505434378893 1.6021850707006733 0.5899385522952691
1.2877818133815873 1.5937523917366285 0.5656776606425062
1.2790050896631666 1.600531213902733 0.5717402463075025
1.2959429916207552 1.601793486622852 0.5735778571397123
1.3004088459742527 1.5916671946376817 0.5633011907056468
1.313680198904698 1.5989445459445761 0.5697537517580759
1.3058066978170664 1.6020965847122133 0.5779494281782872
1.2589601164256499 1.6095723399045663 -0.6111583367708795
1.2196114552088564 1.5828070150471418 -0.57553928336135
1.2270028873141756 1.5819696917330004 -0.560718128341869
1.2030193726971663 1.5832604427503278 -0.619891852810506
1.2062819783922993 1.5834292294773258 -0.6596006925777608
1.2109690231940133 1.5828078580371132 -0.6769043169249965
1.2591476621868198 1.5821152088546786 -0.7256786711294215
1.2699420784651125 1.5850121324431452 -0.7203114455675433
1.3170257250842454 1.584132979418158 -0.7246839854119792
1.363280394847935 1.5826083888123867 -0.7071257042673615
1.364382694718067 1.5864223286598416 -0.6920886820787602
1.3873412936573741 1.5848207227159956 -0.6577478689573351
1.3920577555569946 1.5836615204332967 -0.6156050646318223
1.377878373261992 1.5816121891341406 -0.5705560539741956
1.3374299491048718 1.5827641872602483 -0.5414799316548502
1.3111333020445142 1.5841440467747407 -0.5395558071092087
1.2962621247112274 1.5861549190714943 -0.5429213888173299
1.3868952223296396 1.5831871497758407 0.5915612114843971
1.3439179588125283 1.5846098428592006 0.5516950408408093
1.3846999983155337 1.5866472254514024 0.6191560075406588
1.3889280924039682 1.5859072804020515 0.6350170991172883
1.3755377636363124 1.5869028485653711 0.6731030152960459
1.353733894804467 1.5830563553260093 0.7120770561212738
1.3289087426117983 1.5862788668699925 0.7165246753997708
1.2771791980427616 1.583108210819557 0.7268931476197964
1.2341723009583487 1.5835912142315052 0.7042886214881436
1.2312267129553756 1.5869308805309499 0.6875643991602635
1.209733981815354 1.5843996419242137 0.6637792354447413
1.2070744779808722 1.583819072734157 0.6070898240190231
1.2162851539018573 1.586170436876486 0.5965541167366744
1.2571729728500611 1.581712370302979 0.5397393890692592
1.297057683440294 1.5864749380151686 0.543627444962762
1.3180501203354906 1.5849491893536003 0.5431062849319594
1.238222405294055 1.587329 -0.5972895091440293
1.874943563479711 0.43460697358487704 -0.257062
1.1381040193047998 0.45415800000000006 0.16246244984969382
1.144474831020346 0.454158 0.0436606480167228
1.1310347253122612 0.45415800000000006 -0.1708233519754826
1.108492745206719 0.45415799999999995 -0.11703822910255302
0.8355372589568579 0.45415799999999995 0.07183296232805843
0.8209057490877225 0.454158 0.09453427887478151
0.6022085041921882 0.45415800000000006 -0.004346331158842143
0.8171194322891393 0.45415799999999995 -0.07502916023136726
1.003545717841816 0.45415799999999995 -0.15029189353104747
0.9948851103901293 0.4186013563851869 -0.257062
1.4526572833123812 0.45415800000000006 -0.1420269527663971
1.4559693759109087 0.454158 -0.07687571658943632
1.4372291829919157 0.45415799999999995 0.10261706128031942
1.472502832578383 0.45415800000000006 0.021810801769570808
1.4217868429570601 0.42469038947898147 -0.257062
1.4188967372713348 0.49773000000000006 0.027176331441746485
1.3759307498810824 0.49773 -0.09919160759355736
1.1786628022649612 0.49773 -0.020925201298615775
1.8517336163406586 0.38903002106198903 -0.257062
1.2863611306862315 0.49773 0.12368190032526981
1.1921273908873387 0.45415800000000006 -0.16904533261595428
1.231821258497462 0.45415800000000006 -0.16662763722871282
1.401775024514092 0.45415799999999995 -0.14493377303933594
1.2732308796992635 0.454158 -0.20998419775376184
1.40561015611846 0.454158 0.13437099308144682
1.3122604959622826 0.454158 0.15179514583770873
1.1703288216202445 0.454158 0.14601488755061737
1.1223626437392964 0.454158 0.23001225083943472
0.4151902005143958 0.4304935643278084 0.257062
1.4134313757372876 0.49773 -0.05059650540941244
1.1506080494847475 0.4211679597895752 0.257062
1.3489970141806995 0.45078015727179865 0.5375888850586101
1.374940198164761 0.4560341205225654 0.5556901881631611
1.363701389274956 0.4710807045287114 0.5566234104837262
1.3424579056237835 0.479940262188505 0.5533100692806795
1.2126617947634852 0.4501489924588048 0.5683115865193934
1.216606443588589 0.46223974435188686 0.5662178821309913
1.206064007263616 0.47056336971087875 0.5913042242884969
1.229477082131591 0.4785165383729597 0.5703851145951202
1.3787687762414917 0.4462444307748825 0.7056346940897689
1.379518091637562 0.4580125180342554 0.7022836626033431
1.3779439587562097 0.4716625114261673 0.6920574828242737
1.3788001217820238 0.47851144905963827 0.6781490264650832
1.3581945582250563 0.4748006623387601 0.7084623527813643
1.3515350289484527 0.4681891321774358 0.7194952021499735
1.3458671408581502 0.457080682127913 0.728821260646068
1.3608591977747202 0.44774785711182086 0.7199760284637744
1.2509048569541406 0.4527785144758205 -0.5357303278668138
1.2311168982225162 0.46136311146440334 -0.5511552951365766
1.2336104942605233 0.47041828509487416 -0.5558260528485742
1.2524062739694526 0.47817204956041515 -0.552369941454486
1.3740938149282278 0.47648836602960265 -0.6892608226940611
1.3740405721207622 0.4668633812921406 -0.7043750597856298
1.3894208854443808 0.458025714707212 -0.6874571245355838
1.398123866055057 0.4458107803939903 -0.6766911725732306
1.232496981473701 0.47956750445528873 -0.5679788441652727
1.2149860856467285 0.4683691242589353 -0.5749902877028106
1.2174017805567605 0.46053659332837926 -0.5643062776129399
1.203667253186048 0.4448112046084958 -0.5814858503541934
1.2369661685207674 0.47733217653978166 -0.7038233486134202
1.2391677707788316 0.4652370383928398 -0.7179411591955533
1.2507282698188769 0.4578475920753522 -0.7283254297102779
1.2345868027723856 0.4448461150701629 -0.7190331517213049
1.2731394755813623 0.44929104063195413 0.5284671832676162
1.282779518125738 0.45983488217159507 0.5281567814071909
1.2958500667990118 0.46588153063848553 0.5278274908457441
1.2931889428350312 0.47810145797958425 0.5394618665582296
1.1901924623792555 0.45202177481385253 0.6370767584477447
1.1977987902798897 0.45905798634146033 0.6685920679836814
1.2034937938979724 0.47234745465360706 0.6600213390910002
1.2089751594304505 0.4794182270547475 0.649058153214267
1.4048746772586373 0.4480891939529995 0.6179225067720553
1.4041941068091317 0.46172063050157036 0.6250395382545353
1.3950368624334866 0.4726994063627824 0.6143452596415515
1.38781352075113 0.4775637901406581 0.6045774291976085
1.2807509382785827 0.47586133315253626 0.7259979111461967
1.2624397724438488 0.4649982544834407 0.731583426529828
1.2964898865272954 0.46333430827797906 0.739112048213897
1.2804161134126335 0.44702639157407864 0.7384312430340962
1.3373168312970827 0.45357990084705424 -0.5312718790577439
1.300682668522552 0.45900001912704386 -0.5252610613750036
1.3005911053851902 0.4713396677641384 -0.5318863347877408
1.3298403609641989 0.4775275722113082 -0.5439829960296654
1.391510249975592 0.4765290779218738 -0.617236284879916
1.4019322033737383 0.465483992859559 -0.6212823839409636
1.4030477049509753 0.45583682518645224 -0.6121801391252673
1.3997159124448357 0.4483714308392534 -0.5920301360261032
1.2047866849801347 0.4759401811057592 -0.6479190493304876
1.1968191869873879 0.4684045718295955 -0.6416186484704527
1.1916668702312527 0.45461875002410135 -0.6431181862760591
1.1921808813480617 0.4462157504123141 -0.6479618494672624
1.326212227045347 0.4744243465289503 -0.7256554854072518
1.3264650829205389 0.46797895360811614 -0.7309177051738263
1.3166760789615721 0.4537613765034644 -0.738196395207978
1.3155375327326655 0.44352677671730617 -0.7387483431875129
1.3269258420976449 0.4507533768069987 0.5291189116479545
1.329828409129442 0.46289560565122684 0.5319935539949989
1.3032897339674685 0.4699646020693812 0.5313719559265979
1.3189490940049455 0.47896857094641887 0.5434581519678415
1.1963919669668945 0.4524298021918107 0.5971992323485984
1.1981187365394068 0.46251618364540836 0.5993527594173413
1.2028005308757748 0.47013729849991015 0.6003524010718632
1.2103608140227118 0.47765845477076707 0.5992816261098031
1.4022903871091241 0.45019440243125586 0.6601286253782614
1.4060004941083148 0.4594571686636414 0.6339917724065041
1.3966865266846558 0.46790877844162404 0.6611520419381713
1.3874689391517072 0.47824413060217535 0.6586409993462969
1.3217568349328 0.47628752334881386 0.724419387467323
1.318585648717891 0.4662697477824753 0.7337913397199056
1.3252539121389253 0.45490458247184734 0.7362156701620219
1.3142025803923816 0.4438226386417442 0.7390048974220098
1.2662747753738166 0.4460911595353215 -0.5297354387745516
1.277021380176723 0.46131950449669545 -0.5296584422110646
1.2814815081601219 0.4701552501147833 -0.5339524277670881
1.270278298207014 0.4762835106479752 -0.5419480492321348
1.3941105608003324 0.47568910346034865 -0.6398823845303663
1.3981537156493933 0.46620437125754044 -0.6603257669025914
1.4047627140652263 0.4547236539591818 -0.6459231836425539
1.4004068180178697 0.4447903333671855 -0.6704279303413493
1.2037800878327922 0.4745344499623254 -0.6144735672488026
1.1989755540982383 0.46858667766617 -0.6136217604795293
1.1908742154693535 0.45648130089837485 -0.6284956830421848
1.194064853010189 0.4444887292966595 -0.607684038071703
1.2627928879399442 0.4750258367498233 -0.723377699220142
1.2640737607159376 0.47013353923165113 -0.7279833632710659
1.2626386075938072 0.4617099420092489 -0.7327687782240911
1.281132832665971 0.4477963067128653 -0.7385503945543451
1.241396828180044 0.4493190107570936 0.5419591536772934
1.2451149955574494 0.4639076674908174 0.5425222891013939
1.2303646404810766 0.47012101655037236 0.557726914580725
1.2540266436569747 0.47603454567712805 0.5484150676558235
1.203267731861169 0.45072472011884535 0.6829803866816435
1.2099893148495782 0.46228164019674856 0.6892430887500359
1.2083656932648579 0.4731203179361186 0.674071835483236
1.220884657584722 0.47944308245428185 0.680274104535501
1.3896980603387585 0.4514641459253338 0.5763848140153387
1.3833554300341397 0.45986137115457115 0.5696246640423328
1.3837907395773614 0.47018418965060615 0.5800800218467351
1.3783626159782087 0.47938166729451703 0.5883281720286275
1.2593462218706555 0.4778360949515156 0.7181007678168074
1.2531120169744305 0.4644475014662496 0.7279702820384074
1.249157780933524 0.4585631235912861 0.7270735997266191
1.2405747569827352 0.44778981365764053 0.7229284899888007
1.3533096453826627 0.44718105317382695 -0.5403413279034769
1.362511274668171 0.4593560020567259 -0.5483258766083712
1.3702898785020792 0.46942657513081787 -0.5595343247907403
1.33616474611703 0.4784751964622341 -0.5471364914227816
1.380464793830569 0.4738668408644848 -0.5803844300400792
1.3876947276804548 0.4644467863696897 -0.578180914938757
1.387302751395 0.459147724569665 -0.5752299185952523
1.3993646088067409 0.4509147158420764 -0.5908229356706362
1.2119770464542297 0.47740164487118164 -0.6710481017478438
1.2113304106272658 0.46522017012738126 -0.6891702381428249
1.2211751582985435 0.4577392798640192 -0.7079078606709839
1.2085511452167217 0.44394838415848964 -0.6912517167133251
1.348250955201903 0.4752648914445813 -0.7144829396955731
1.3402521946521455 0.47005761375300875 -0.7253495247298367
1.3518249325269192 0.4540082545515407 -0.7257101331034387
1.3598590141040041 0.44397933646927423 -0.7207795431651791
1.359399871489953 0.4333511154054871 0.5442739540413184
1.222326990716067 0.4972432173324743 -0.11595894829659464
1.2157307018468635 0.494119101044244 -0.12202245020399186
1.2273539785971752 0.4883067018800399 -0.13249042691211127
1.2081055532989882 0.4798489605351217 -0.1207395075762224
1.1853431898936058 0.49724393909975684 0.08034218136060854
1.1727186487791843 0.49462015022823835 0.0748876686303554
1.1716285486231832 0.487926821729772 0.07980931766868848
1.1894247977228554 0.4846815257193773 0.10750400485479995
1.4137512043202207 0.48564649746586036 0.09821059964149913
1.4245876686166012 0.4929677907767041 0.07758778330764265
1.4088587839590456 0.4947366741681475 0.09746378596686547
1.406487159866448 0.49746262602571556 0.08158653165413352
1.356014573632287 0.4971849576336767 0.12959326580341013
1.3772255443084704 0.49411670123968376 0.12473998911236191
1.375998916547902 0.48756753637428973 0.12858823483286141
1.4011077865149026 0.4825478951860567 0.11245831669553623
1.3132793216242182 0.4975800376233711 -0.13283842667138224
1.3057241021301351 0.494342947027341 -0.14832847272875246
1.311328450326833 0.4895001154139227 -0.14961588311824128
1.315777555839509 0.48016467656618783 -0.1501176685336939
1.1611984396135133 0.49723733223424116 -0.02136018375331477
1.1583178404746224 0.4947878621861601 -0.0424435501004958
1.151623414435507 0.4880943496989849 -0.02927368477266019
1.1490683926392382 0.479396309622975 -0.02084241288773581
1.4474507793726872 0.48320659792517373 -0.02255354714907489
1.4435306834171708 0.49323798436209626 -0.02869870626779863
1.4424189204930127 0.4953795675473528 -0.01614396934135123
1.4378964940562673 0.4973038508504548 -0.005252578757017313
1.2779279163965926 0.4972926827179145 0.1365302794477317
1.2971446325648743 0.4941022733347837 0.15010649179548602
1.2711112538607598 0.4883555252308789 0.14715608558803772
1.2780464749941367 0.48162678587174845 0.14942449119663098
1.2546113956161733 0.49718699983493786 -0.13367431155335108
1.2820161208039542 0.4943401419725698 -0.1464914048986945
1.2831778472518338 0.4892842614597481 -0.14920044873811159
1.2592132504816398 0.48043610813744886 -0.14572666590721073
1.1676626430440902 0.4974020511133119 0.0398929764561037
1.1545506591469628 0.49409487814897946 0.03237778692975989
1.1534228051512874 0.48954899839219906 0.03551557302175024
1.1526486455280638 0.4803525545053129 0.03864793182986274
1.4438980333411913 0.4853207214999317 0.03998626700402601
1.4449334952118091 0.4922134295803608 0.023622108030340268
1.4395613114730814 0.4965210807151944 0.0158937285328715
1.4317198237917577 0.4975019055642622 0.019511733335483828
1.3326193650891918 0.49727764348264963 0.13409139416051086
1.3263793398388293 0.49498416161645997 0.14258680373652405
1.3125052845604164 0.4873212861614213 0.15021753221161538
1.3379176039077088 0.482468253162907 0.1456212268403958
1.3626249458812714 0.49745979810172347 -0.11970887944259138
1.3619687220235694 0.49548385238202886 -0.13082658755116805
1.3799990355532237 0.48999740396497776 -0.12481579340022106
1.3579101834288942 0.483660062058788 -0.1412693552205439
1.1764791752738462 0.4973523306252994 -0.06384942801500183
1.1693677994196798 0.4961496251759785 -0.06299555632577225
1.1805270436387287 0.4875638201332975 -0.09337233083319849
1.1647977578607889 0.48391488305956554 -0.07070172856914161
1.4267822591992485 0.4820029103513602 -0.07896786139275758
1.4248821151574955 0.4930724091531185 -0.07707626996614854
1.412682969483622 0.49567158777774833 -0.08753674504887542
1.4109705701965192 0.4975736141828993 -0.07157242241196006
1.2249385994835789 0.49731941867952173 0.11618811509146973
1.2248380007811672 0.49553860458473675 0.12384284374610105
1.2278598476270532 0.4897635231138347 0.13216905919819083
1.232070035841844 0.47901974565587546 0.13679163340352934
1.2275839147737089 0.4682069811895447 -0.13385612809506287
1.2043324819916672 1.4773559293005083 -0.5976998814930443
1.3762411755487187 1.458897617129723 -0.5966594735566277
1.2829195170564534 1.459457571079478 0.5479848869549692
1.2170802278788004 1.4587605315250123 -0.6460187580439165
1.3460527396571593 1.459634490074711 0.7044027842483767
1.3939841180685653 1.479116674518267 -0.6616284496274712
1.2501384879944064 1.4975244978451516 0.5590707755583753
1.2273842315683383 1.480475442996191 -0.5607094509616594
1.3817206367942796 1.4589913163983708 -0.6094516675452106
1.3731723829407854 1.4979958838086853 0.679935211435495
1.2460683502707335 1.4823353233020307 0.5481007494000553
1.2163506573464162 1.458812068309372 -0.6188106052920921
1.380494904427156 1.482683064096839 0.6890572933636478
1.371720862284917 1.4812035839923166 -0.7020412367363998
1.2165495670023083 1.4978062059913633 0.5965359234183887
1.2256698742711296 1.4587719090188467 -0.5929437857444958
1.3783520734493107 1.4586374919348732 -0.6438894998811521
1.3870322348126174 1.4974283538414168 0.6388936852932627
1.2157713006643287 1.4852850534119517 0.5771825967504981
1.2446872050981843 1.4974381199296556 -0.5627669000809337
1.309486734701649 1.4980258864151481 0.5447986337723891
1.3430332683232173 1.4784082275730726 -0.7223054027313558
1.2107800666207011 1.4981660716112803 0.6205019324024346
1.21908692059212 1.4733463897101697 -0.5734118146599056
1.363518584396345 1.4588341007813534 -0.6859372437112359
1.3852210251972168 1.4977371826912391 0.6165597241671582
1.201019939649915 1.4812054690128833 0.6132591193394987
1.3764788665233532 1.4608250036055055 0.5954557836498314
1.3757683405656047 1.4974381612976488 0.5898540763965878
1.2994110472386309 1.4815637834595736 -0.7338828949378193
1.396314561709661 1.478103967905139 0.6157575964383981
1.2106495819725633 1.49837037852761 0.6447686245470408
1.2281689180541484 1.541297900445747 -0.5671267037002875
1.24759759665324 1.4588905685814617 -0.5650323897018666
1.2091713436710165 1.497901146310322 -0.6292949007171318
1.2096211382726132 1.49711542840094 -0.636254185168673
1.2270616841501194 1.497865260582539 -0.6846337100886617
1.2417456734494474 1.4978720445932345 -0.7009208926912515
1.2782856378237626 1.4983321537936636 -0.7189079120172985
1.3061857428307815 1.4981153966911804 -0.7212873692455435
1.3413916524152345 1.497385229095375 -0.7098877314345718
1.3647071066543468 1.49819640270474 -0.6927924264427209
1.3876509933587111 1.4974936681825806 -0.6359595877857451
1.386519591814329 1.4972723727015669 -0.6243247149340584
1.3720170089902246 1.4975985782595083 -0.5840894924798135
1.3427215835134314 1.4589746376127506 -0.5589445263736071
1.2605092233327793 1.4734719969780457 -0.5393347543043246
1.319075758813729 1.4976274863118666 -0.5469170512091734
1.3619339767137584 1.4979658293255649 0.5688571407945022
1.3728609444016284 1.4787642194935693 0.5652907455209876
1.3852524161425148 1.4607947562760424 0.6303700143583968
1.38060337095911 1.4591538681793883 0.6620804856935364
1.3741482554213653 1.4600210397142241 0.6740500780186081
1.3490194685890744 1.4974716526746323 0.704845365939589
1.3162874205004695 1.4594601345390048 0.7169596386682775
1.2672158493659351 1.4600210532686395 0.7140210025128835
1.2447390080978735 1.4602116299378538 0.6999412335919564
1.225748365175757 1.4982649513716324 0.6830423746747306
1.213037870256904 1.4590363983399266 0.6453961422061206
1.2149179503803338 1.4597648394188925 0.6121766660766783
1.2274426978992703 1.4594746866626047 0.5840477927466226
1.2396967746474854 1.4595613366073197 0.5684660383819764
1.2729267730128329 1.4981541378742398 0.5476343430761412
1.32231402091451 1.4601995418589913 0.5499523685866081
1.2747004009931207 1.4792715861104275 0.5361838924111169
1.3362062625934592 1.481598027694641 0.7265660970508694
1.3970240409112034 1.4734747751644 -0.6206395709896676
1.3554377830564972 1.4770523705759544 0.713926199641804
1.3849632734742279 1.4729297037396558 -0.5839850453463125
1.230837003677479 1.4588933001504691 -0.6836624096295342
1.2050427624931805 1.4770585410539476 -0.6711685802656946
1.3967742220524357 1.4780543428417365 0.6472993439006265
1.282907419558878 1.472638987281455 0.7304553180282233
1.366806886875247 1.4828216207230949 -0.5586673529988315
1.3345747850590959 1.4830736554277912 0.5384079161243928
1.3032096241575966 1.4979456208212372 0.7217892936578283
1.3498375039785864 1.4975971877970622 -0.561004750655713
1.251387329901313 1.4587897762136741 -0.700945137707131
1.2144871330566192 1.4713027526668185 -0.6848821645119989
1.243678892844621 1.4740858344823033 0.715134077352035
1.2828635346573012 1.4587050236316008 -0.5526290266689747
1.2960495654410558 1.498184704624426 0.7223629852783491
1.301086044868982 1.4588189106059342 -0.5481756077841159
1.2843754927019622 1.4587872191639468 -0.7143924037292118
1.3229472909062363 1.4780485519372213 -0.5363794151117867
1.2354880313124332 1.4725944917568037 -0.7095615820717254
1.2202568817670878 1.4606635154003924 0.6696395967751145
1.2610041536513856 1.4970390317606839 0.7132678817503512
1.3560393278952751 1.4597826965815939 0.5677304424233203
1.3212119692349207 1.4588020781348734 -0.712928821329201
1.2059126212892612 1.4783051601642008 0.672748329527523
1.2715431520944842 1.47762668571084 -0.7284771137814736
1.3586615258574999 1.4780931730172198 0.5535403803307912
1.200244543701277 1.476201573664921 0.6468020928424509
1.3469965362485836 1.4587951306682603 -0.700132058941914
1.3112436309949307 1.4922773607155997 0.5395947526275148
1.28869258124892 1.4659124317984926 0.5390220357736707
1.3227862258935394 1.4645808530228162 0.5433662275880191
1.217182808730368 1.4704412791843358 0.5767889069850621
1.2076850072042062 1.465109627697745 0.6130037858886814
1.2051827280877878 1.4651428116222533 0.6399816930867877
1.2256018832975917 1.465262386193868 0.691124633982457
1.369113375088007 1.4653243340471669 0.6946828720146928
1.3895003535330503 1.4655459852049206 0.6539247875253282
1.3933103242752642 1.4678951208335886 0.6176064353537842
1.248096819559375 1.467653685940907 0.5513189950715334
1.2872913567225877 1.4892874569181618 -0.536671883096898
1.2679961280388283 1.4621974417169332 -0.5472303289745883
1.3066419538116878 1.4670116858768871 -0.5374777993163834
1.3358727771983911 1.4608484841454992 -0.5514440809347174
1.377066731140066 1.4860706962852819 0.5718416576886685
1.346288762562973 1.48598153095888 0.5453075878857123
1.2463964941691026 1.4702272443139202 -0.7162699495989887
1.289836989831725 1.467986717540559 -0.7288718598303421
1.264753115929956 1.4863688327473663 0.5385974301976174
1.2366973158843162 1.4970824838697856 0.5661541095590367
1.3692790013320362 1.469859590647095 0.5621292997026353
1.2276804777685713 1.4647453446753524 -0.6932302198852471
1.2199783875460706 1.4912207596121434 0.5797604607839395
1.2070830218672872 1.467707293225727 -0.6637324600812727
1.1995138891402792 1.4862540542308011 0.6230614024375706
1.1996919001017152 1.469713857075336 -0.6276985890403357
1.2028889341568174 1.4914404932366039 0.6364413349710174
1.237034590139673 1.4904839544671278 -0.5591082935252456
1.2289857231516903 1.4938628731505603 0.6950150668100266
1.2114401132657093 1.4702567850707933 -0.58574189988199
1.2340642673155344 1.4687511878532886 0.7061124548227834
1.3527571470467208 1.4898993808721377 -0.5536788563630997
1.2997272183581012 1.491321546972633 -0.5364665529426983
1.2230900338591808 1.4931519730781961 -0.5780909315014857
1.2617204830558386 1.4682931386850733 0.7236164909794476
1.3703233940368815 1.4695851427685263 -0.5642257519757983
1.317650508587541 1.46992079557875 0.7289181303970393
1.3892272550618228 1.467980738306335 -0.5966025764944061
1.3503086849027646 1.4689217898579081 0.7147797834632044
1.3883180925463738 1.4611471001345249 -0.635513125237519
1.37769242826531 1.4912845465868703 0.6845383508950368
1.370330714953631 1.4694949548178722 -0.700969959600038
1.3912982050859783 1.49175583256647 0.6492571894032185
1.3540413958228954 1.4700400252942483 -0.7137383143631396
1.3927595819907466 1.4888993096703804 0.6108890032817942
1.3248265779598296 1.4670174776446323 -0.7242935571951852
1.2434337536394888 1.4862932881594093 0.714881212491731
1.275490176408462 1.4894471448332738 0.726222887426736
1.3116460823965008 1.4878592380128262 0.7295785691149604
1.358918955729523 1.4939715567162297 0.7033766048647487
1.3498379496264978 1.464855042400309 0.5555705723583471
1.373922743747943 1.4913899635382157 -0.5753648639091065
1.3928188372562003 1.4900702333481344 -0.6163436901864113
1.3968521713789006 1.486226688335882 -0.6456932353621146
1.3728598294367746 1.4899508678135187 -0.6938341401785535
1.3515218087457732 1.4911603930415631 -0.7112251664594076
1.3107962471197028 1.4934590869239854 -0.7248408116205436
1.2718230837025555 1.49472167336431 -0.7208717524817612
1.2368907921201453 1.4891171065090048 -0.7075904393818669
1.2091524341344382 1.486931845132442 -0.6760537091658765
1.2065976933945708 1.4959225255403883 -0.6353423932422196
1.2018773321333702 1.4894769656651659 -0.6253769236552946
1.2434299775430657 1.466673297203895 -0.5557109444084399
1.2863533249338264 1.4978178878349362 -0.5451420684902872
2.033937 3.348974274058572 -0.039320027157535846
1.307625096742659 1.3033450041881487 0.7942759464382056
1.2545491568232991 1.2828142811885754 0.46098595898412614
1.2418441049628888 1.2488911812089498 0.2326853513524552
1.2452502643323538 1.2307826041279666 0.0847020832275214
1.2514946550995307 1.2185540447819605 0.2665733679123354
1.2707385079320042 1.1999991889000012 0.533101977336024
1.2949266210237875 1.1923500526935322 0.01897314815391546
1.311450032670329 1.194212862589471 0.8162387814770184
1.3374303231012152 1.207453372946527 0.602441048086507
1.350715587700613 1.2263321680688466 0.8407493307580434
1.3520801611167204 1.2323795725963613 0.5301352906290846
1.3538302228242884 1.2556174332895385 0.6368695266093434
1.3401657824978936 1.2862535277213738 0.58148333545535
1.3276328660806211 1.2958901629056174 0.122023644021332
1.2710097606909974 1.2969790587347687 0.6444799476935839
1.296502516330216 0.8486257302946996 -0.87534
1.324279645656049 0.8390396416038925 -0.87534
1.3375304579569909 0.8004685990888045 -0.87534
1.3349316180524826 0.8072327058164288 -0.87534
1.3277947000019763 0.7994273852847732 -0.87534
1.2894390996782334 0.768958166833815 -0.87534
1.3018712232552343 0.7704170369231076 -0.87534
1.310732902085912 0.7711471142531975 -0.87534
1.2579792936379808 0.8126598332222104 -0.87534
1.269559357745414 0.8376760068881647 -0.87534
1.299170741473867 0.8146937128419937 -0.87534
1.3314623175599298 0.815750838263513 -0.87534
1.2709680136121144 0.819908738825238 -0.87534
1.2856750206431966 1.2858337187112254 0.87534
1.2866913268106084 1.2834891725048623 0.8753399999999999
1.2683124426392542 1.262528333140561 0.8753399999999999
1.2603411947483343 1.2382038497696581 0.87534
1.2747038472436445 1.2203625174104304 0.87534
1.2832308530774148 1.210604342632823 0.87534
1.3096832682348973 1.2093047252479867 0.8753399999999999
1.3115580018441442 1.2132270200838473 0.87534
1.316652063659816 1.2200900938948558 0.8753400000000001
1.3282716076039176 1.2641714938339934 0.87534
1.3281534256165985 1.2749345929630613 0.87534
1.3112831275371655 1.2863894545186474 0.87534
1.28190569505978 1.23354809644049 0.87534
1.2874949993837896 1.3029685606250794 0.699693466113001
1.3063353723124576 0.8637509201551506 0.7992465330281959
1.2513592900034793 0.8381900099616448 0.4986695354522317
1.242886702091536 0.8142821333326203 0.03842768945608102
1.2433822152011547 0.8003229987539264 0.3496253183068491
1.2512936656672313 0.7790048428481473 0.7097487476138015
1.2704406550408658 0.7603482104038874 0.3627545543763055
1.2880992107114706 0.7538582424619371 0.5505973651049064
1.3108750751842564 0.7542484904645601 0.3269244134650281
1.3385335707316053 0.7683405489454583 0.010589458095672015
1.3457065457459576 0.7789857036220793 0.26985258164645415
1.3535009989637796 0.7996735584472818 0.06158361229475706
1.352970640085993 0.8200895699443986 0.03605924005766992
1.3417475455449863 0.8440360301356533 0.6938178178730936
1.3225923767472143 0.8594081536060754 0.06254474042686316
1.270865597301054 0.85703273059586 0.5956235362675417
1.2859947427576268 0.8469950523976747 0.8753399999999999
1.2609183197926344 0.8247143427929867 0.87534
1.2654523664669532 0.7881348666403247 0.87534
1.281165076874237 0.772355676028009 0.87534
1.3190706622695312 0.7742416744776139 0.87534
1.334599118866764 0.7955810926718204 0.87534
1.335511769177399 0.8232455536623333 0.87534
1.3044018737865215 0.8484188391171836 0.87534
1.2803864814888906 0.8386665315129423 0.87534
1.27264130756596 0.8159670675571189 0.87534
1.2972299368344118 0.8317201494796236 0.87534
1.32416721719152 0.7822123204564082 0.87534
1.3079548265727794 0.7885216562876894 0.87534
1.287183743916072 0.8630561632391431 0.7798751282469398
1.2950503714512798 1.2928613744305577 -0.8717201617699033
1.2984971980698516 1.2902365406005643 0.8749670156389002
1.2788563559157526 1.2855836561015275 -0.8741677518545705
1.2779342382530554 1.2889066369731819 0.8708923878881555
1.2465144247022848 1.2701947508456342 -0.8606635032422283
1.2634089913175561 1.2727409602557616 0.8732967096233444
1.2493570071433833 1.254303650361736 -0.8666460224122812
1.255124606065021 1.2586591321734684 0.8714533866126242
1.256250687422708 1.2404028919966117 -0.8729999211285344
1.2532682152399048 1.2442598766420825 0.870827134917553
1.2545152045181829 1.2288557977050003 -0.8685682952541884
1.2526916776966215 1.22874890042943 0.8669926299455303
1.2777949930633294 1.2100096711190333 -0.8725778521614841
1.267773928154023 1.2122802105481225 0.8688977260338682
1.29358276419526 1.1988720909789075 -0.866467903279776
1.2833575513675808 1.2015550716453494 0.8671041639899693
1.3154532900087657 1.2055586298303849 -0.8706804260724207
1.3036778585363158 1.2046500067713943 0.8720859875978866
1.3342117312125477 1.2123097094492188 -0.8661592851983106
1.320873780472716 1.2068290768762728 0.8690127184119758
1.348140783563306 1.2276164532346938 -0.8631873776841941
1.3322134534284282 1.2224229050756397 0.8735454200340294
1.3432590579815535 1.2471944495953118 -0.8718751697071995
1.3396155220250696 1.2385115980200925 0.8737547421907236
1.347479164140767 1.2490427031722087 -0.8678449295535906
1.3516289156083467 1.248900325746376 0.8638024259604846
1.3375173710548816 1.2729671501617386 -0.8699169310961647
1.3332367989384137 1.2707184824382514 0.8747253505229462
1.3215190259341765 1.2890431974349763 -0.8694229203111019
1.3198217266358214 1.2909707634520577 0.8687630988879886
1.3011548634348749 1.291140214830275 -0.8735656451927656
1.299250006799138 1.2953402242593108 0.8698179623955001
1.2885799197548278 0.8521784313538936 -0.8712746626217714
1.281325855582414 0.8503152147198898 0.8716868645507594
1.2662809559360935 0.8425769900716229 -0.8698057178378698
1.2763399338687962 0.8451761386393378 0.8732332129131898
1.2547504408202008 0.8303436326589075 -0.8675124130699432
1.2588189280539153 0.8329934459780078 0.86942288749067
1.2570211095591088 0.8164716057833684 -0.8737696383086888
1.2560707744175663 0.8221201505689353 0.871735352118269
1.2575797036481884 0.8047676425698403 -0.8751259103036408
1.257660300824432 0.8024286283157733 0.8747485934379515
1.259312013484374 0.7832107114904607 -0.8693370724117679
1.2586028790314259 0.7836978443662488 0.8690180949798396
1.2680901646746903 0.7717426766653699 -0.8685017749462313
1.2760101645356774 0.7678685990019039 0.8696808191381753
1.2917250544330021 0.7616553381682998 -0.8686883680752535
1.292787070795355 0.7646363573023067 0.8718195061371948
1.3007210838451628 0.7618763484883639 -0.8697959758048956
1.2992557512516396 0.7573553045733286 0.8656474074418586
1.3296285108030728 0.772340154278067 -0.8686063373247603
1.320608256007634 0.7729723905798355 0.8741437178668129
1.3406188445920306 0.7856973550620758 -0.868292375063862
1.3337993689432877 0.7840398668294892 0.8730418637926611
1.3462459496698935 0.8064242626740341 -0.8687659582157247
1.3430106830735524 0.7982557992633588 0.8703455471459193
1.3403575453868917 0.8090807691311909 -0.8748520060529551
1.3413519804667342 0.8153442482562897 0.8726545685137127
1.3348193533426715 0.8327749696582004 -0.8723503693726284
1.349419568258378 0.8297434350894088 0.8618942234208266
1.324274467587281 0.8459221825857444 -0.8706116739269891
1.3232825361352643 0.8433809790930697 0.8732758428541075
1.3004811693883522 0.8569589306011067 -0.8681368133761656
1.3003303520127745 0.8551437839593244 0.8699466248343476
1.3231440626272297 1.270907536595037 -0.87534
1.3146564743352847 1.2849470462933172 -0.8753400000000001
1.3277277299810026 1.2766125562152781 -0.87534
1.3378233723007682 1.240410288107249 -0.8753400000000001
1.322000366591813 1.2170268539303157 -0.8753399999999999
1.299595993616808 1.2100801314607101 -0.87534
1.277611029501283 1.2154484169759734 -0.87534
1.2722770002418218 1.2177971912155234 -0.87534
1.25869315291095 1.2507771014601985 -0.87534
1.271074641987896 1.2765405220898136 -0.87534
1.3282385112109427 1.2380736672862676 -0.87534
1.2641481443876528 1.2561632782987437 -0.8753399999999999
1.2859823755635 1.2544406271059212 -0.87534
0.4082214568958863 2.560396837281003 0.069654389901477
0.03520727610349372 2.724972645552486 0.05714014604073328
0.6016062980690691 2.492808276624851 0.0598837412662032
0.5932060143400787 2.3337539622095087 0.08399413111040288
0.7241561867099717 2.2194294994228017 0.07746544266015536
0.8954731601338533 2.0374016932603762 0.06133363952041873
0.9110370385556299 1.9243851488517008 0.06392665479330017
1.01732431193312 1.6980342134012054 0.045161243466819836
1.004970983398095 1.5416781859844377 0.04364450504454093
0.9423058821331238 1.2746750788654735 0.036693225467691715
0.8097799221386731 1.2061575947106964 0.05243990431255912
0.6675934643473774 0.9373372958804207 0.03638094733397361
0.373015255008902 0.8734033909372206 0.05590974884108543
0.2788142502597829 0.9099270805687598 0.06806414971168159
0.15837917822716135 0.8422755797370051 0.06135770574716304
0.8470109907073224 1.4072996193701774 0.02496101832970381
0.33632936936530866 2.4452489698093487 0.05558716037691673
0.17598404475493956 2.1476406301034503 0.1270896899583872
0.0025481457814758696 2.4669160209624037 0.06695482827704173
0.022404804072366755 2.1866242977096406 0.12645878296783092
0.3570774687347711 2.245537349780444 0.08666350286812478
0.2715707647692785 2.1438267619748985 0.11489305774725692
0.5177956182724579 2.210890412619997 0.07021624523469336
0.33105851777549966 2.070150269003432 0.1192131778608094
0.5305289650052887 2.0794201285144247 0.08317802018140578
0.3884054722917861 2.0018419001746652 0.1179273527409812
0.7206612321150336 1.9614588439599425 0.05790610296174431
0.3739364504232061 1.9074105119889484 0.13301060563628467
0.6869901390501998 1.818597191496964 0.06902728884050874
0.43404147096174356 1.8469464478713373 0.1217428727652739
0.5673100320165001 1.7308685360898945 0.09236994232412586
0.13080905770783052 2.242944882967879 0.14888573655269086
0.648022289527419 1.6054138373670703 0.07323955013340025
0.23680110507762187 2.6430471084435303 0.06676379951720991
0.19845456691933358 2.47892804288763 0.09928973937547426
0.38803087367418254 2.759468575404022 -0.028381160176244178
0.5104764291761278 2.699081157831557 0.0018473277390729723
0.1201171175272265 2.34563852915411 0.08801328975342268
0.11118554107502934 2.8250575835179914 -0.00462941824450851
0.07026120875834949 1.3317242766771449 0.12115394078127864
0.4965867617667406 2.624289459486171 0.010440211507464936
0.11957190955649913 1.0992031223602725 0.0711099793398399
0.6303944298884708 2.954094059409054 0.0018947294326920852
0.10896024432988027 1.483875375646091 0.15897288056255318
0.9593800438097736 2.2283206771564656 0.026161417393438566
0.2627032393121713 1.1148638705964526 0.06655365203269994
0.873416385275513 2.2896859580616185 0.005526018482738346
0.25795082172654354 1.3775594733962757 0.11455946927501297
1.0481250272027003 1.9777809772458874 0.032551149709360586
0.31180414591726047 1.16670098811186 0.07125410047804612
1.0438032093110476 1.5814845903900931 -0.040125238788274856
0.25843898196132215 1.4805258065733229 0.13651026608655337
0.8112383816980566 1.715299178122499 0.04512690447183823
0.3822099496706932 1.3319600338644084 0.09020181852478605
0.8987078098324175 1.2018063421177887 -0.02865361943756008
0.23644227703131424 1.5835488833337656 0.16027357718866025
0.7998763697485133 1.0713073739815924 -0.030557910501029857
0.5702327952429336 1.3231132881504903 0.062475115148031474
0.6929831202481694 0.9631631909583609 -0.025232775553987206
0.305887569519936 1.6217125705356894 0.14960804763649804
0.4881397280295654 0.8228980014189455 -0.011298916536556857
0.5708560506470883 1.5017601843134947 0.08067365479187188
0.4489809262270792 1.0313567637205785 0.03566390707540593
0.3915145041176272 1.6869020825233543 0.1332627648195048
0.07399150702707932 0.7043859326119482 -0.028934958554248248
0.4037472315324031 1.746046502612344 0.1316353165991308
0.13508644890678645 2.171476302890559 0.12486465290084578
0.007075161863248052 1.3568580727710675 0.17677956400667705
0.07991884428063459 1.0222940576404287 0.09749222958755116
0.11460292011996132 1.3050118614147 0.15503783967493368
0.22235461801351764 1.0638773917319824 0.0997250611756574
0.20749532226781303 1.3909511598210806 0.17003233757507374
0.30608158074756797 1.1740248408487575 0.11328563429090388
0.238238146768841 1.4271199505067633 0.17511410007588202
0.4625624741991868 1.227908172516495 0.10497549532558467
0.3971756361172639 1.4667110415782143 0.14775293231925507
0.5217150766064969 1.3867200585308534 0.11765754323038442
0.46578622547291265 1.558016901787935 0.14388187380573342
0.6240115537919165 1.454659597393487 0.10738989180244746
0.44441672625291423 1.6670490022729956 0.1618373652428397
0.674568883464673 1.5532505192604011 0.10544101641348004
0.4231546554641262 1.7283920508527957 0.17141977033053066
0.6545523397297583 1.7140371658717473 0.11528512143869712
0.4179536102336282 1.822793663530398 0.17253547764051652
0.6732789901943732 1.825432304098213 0.11156218494943318
0.3922543655541728 1.8937468686771393 0.17553490726879528
0.6337229346021322 1.9412307127846709 0.1151740458127426
0.3777257552603568 1.9970360649360264 0.165899812830621
0.5704252310993488 2.086684704317652 0.11578734937818333
0.3678635069459928 2.055048540963313 0.15753206339019088
0.5701672668642479 2.2305374717755573 0.1001018196237585
0.26379100565744795 2.1219699141080777 0.16580165759408744
0.3804835853884986 2.3203899698670845 0.11278891285591389
0.049005801875684006 2.229290237266631 0.15821420734515068
0.04039579871700066 2.529231097609168 0.0947151281162205
0.18538830824418828 2.143389097758709 0.17311099584218148
0.2944821189009951 2.463011183284827 0.0966336613020503
0.8813400817406508 2.361483109658419 -0.03982473462566136
0.6318996346407714 1.301529896313329 0.05060801252611171
0.9437503117972529 2.141838704124661 0.006493104747455335
0.6656302121470068 1.0679164068690021 0.015955517928641583
1.016086813735245 1.8289832605042033 0.0054909375805870814
0.3409545779434139 0.8758782825532851 0.017932205822039003
0.02982762821787017 2.57364658162145 0.045903289797323533
1.0655021145194412 1.774248858836446 0.001349899830907629
0.30433153168468663 0.7487362214551512 -0.04104495434171778
0.23442801180752582 2.7317736183856955 0.010134745093554009
0.815974743580649 1.5843271958655654 0.040973015060256565
0.5130043205684185 2.5288254245507287 0.025182139570537762
1.010148311456455 1.4562353050461159 -0.04498173699714153
0.7037592369103417 2.403100771192487 0.01883316802076067
0.32547201592942215 0.7992640127997384 0.004168168947255663
0.8094962990831411 1.1259980070709326 -0.011389687198270038
1.0328866624898463 1.6700213906562342 -0.019718045245346007
0.89168088825785 2.326124667285053 -0.03806739436471784
0.5139462736647396 2.6825147033954897 -0.03441288484156132
0.04695799566509354 2.8300150997003732 -0.04642090343588007
0.2603034530764181 2.791756154002816 -0.041267816367575275
0.585226034140772 2.634162263202203 -0.024552678204482488
0.7969869130185976 2.4471636618972274 -0.033738768952771885
0.9897310546851947 2.1120583651581297 -0.034653576249161114
1.039217795317054 1.9489471067404252 -0.04215066370993278
1.0032950573559871 1.5150571311800383 -0.01313022877235475
0.964235506104288 1.3423537793178204 -0.038393333318508235
0.6575620147391932 0.9785205029184706 -0.0032604786625055086
0.5318315917572869 0.8659192780625246 -0.027866903985839915
0.15420961629591978 0.7372925604259952 -0.019355424347135233
0.08103431839437474 0.8635775374531807 0.026473838093249966
0.6418140462972464 2.6156074341118716 0.01756914437802972
0.690235543319459 2.575407060104948 0.012030830113996525
0.6961935379502916 2.567355479557724 -0.025832854080149775
0.6551878553477144 2.6016380466177687 -0.01828412046695388
0.709542092674957 2.559501979908284 0.011305050945992117
0.7155166591242081 2.554089097989158 0.005201616073192646
0.6292948199040078 2.6222074048344863 -0.026436232194473986
0.6433985170897093 2.6132884454022967 0.005367668156598148
0.6305544343973821 2.987241931077639 -0.012615418281724938
0.6046944740566498 3.167699362288586 -0.016894261753209294
0.6215283830164844 2.9294827607041984 -0.004606977705403912
0.6026279083294259 3.195028804515468 -0.0046040161985656585
0.598987659915355 3.193230210938344 -0.0008328987074521037
0.6053842638242559 3.1910668635751738 -0.010461142637889734
0.5974856538802961 3.1899530084787164 -0.017784318363556113
0.6525579693276833 2.8037083721801945 0.00041388015919788745
0.5927100769018778 3.1622099379997333 -0.010279080804529269
0.6454883251508912 2.763455592604583 0.002850479770273551
0.6217445858416679 2.958929120274286 -0.01630798528338026
0.5867342837402909 3.203783180427844 -0.01741002915456479
0.5826053042233432 3.19332821900817 -0.006647120011939591
0.5827242697903303 3.195204139473071 -0.015125799610077378
0.5811721428652168 3.1947492091661047 -0.011497632787622981
0.5930600080074389 3.1890159032124767 -0.0007854939641661993
0.5873600969444961 3.1888289876554223 -0.009789634241294707
0.5923898138653547 3.1898881649959527 -0.01677403890786386
0.5872026986143682 3.1908380681785182 -0.005478431549354179
0.5729151131566342 3.201524394607838 0.0007109713805403871
0.5882071021631036 3.2081495524011707 -0.017168924573906952
0.5728298551686735 3.194444906590302 -0.011217736680810546
0.582957876081015 3.199888936083577 0.0007766193757646513
0.5922667696465537 3.2077251067840704 -0.0106889252763981
0.5864388444439822 3.2041606552247885 -0.00021382981680355992
0.5896492611113389 3.2087738765262825 -0.005320972707022229
0.5870366727594101 3.195451092704407 -0.0010299089164139707
0.2981260754059834 3.206444279504081 -8.570311655670788E-05
0.2159700512680542 3.1960791640640984 -0.005383508213988752
0.5731266561782952 3.2129068490969477 -0.013906753537327688
0.5808423671985973 3.1941020197069596 -0.012180730007246031
0.5729470021127285 3.203296007830201 -0.019268115870443175
0.5892857095538201 3.210696465099746 -0.011574548920826936
0.30641519666657185 3.2005476156996346 -0.01688321395314761
0.3338857344578841 3.2098789410833466 -0.01629699714099091
0.02966637297121849 3.195862368830726 -0.01170729655989342
0.32975808836679316 3.211206387726388 -0.014617337101321008
0.5742311172245311 3.2012318822106187 -0.01909636601380395
0.5728123554078957 3.194319939552794 -0.012118524910467932
0.5736373722159803 3.1990317879460757 0.0004408666102684499
0.5744044977771892 3.2155094334598764 -0.00710332710301724
0.5751745440829346 3.1940350313079966 -0.005501947717014021
0.5739519096309265 3.2083254246520063 -0.01842830456713212
0.574052433911699 3.2154973690515116 -0.012998219309418904
0.581554095730114 3.2050416837353626 0.0018772282169472673
0.5887211353742984 3.2106646987753287 -0.004738322854841816
0.5731545589762296 3.2114077898349582 -0.01742049308764964
0.581133582626498 3.1958739289200446 -0.0010478758884742976
0.573153426323294 3.2140780180039803 -0.006682592365879711
0.5870999646822201 3.2079790964862642 -0.0007910540400234593
0.5728213048904053 3.1953544530935933 -0.003308206833554195
0.5843880928747587 3.2003593890603095 -0.018232164945498952
0.573074816036006 3.2102890153654693 -0.0006430034494709688
0.5748034137982166 3.2220556227543398 -0.006726862610965998
0.5824692118040368 3.2216770661297867 -0.016079963289884407
0.5841751916527647 3.211110305528581 -0.016927464846097355
0.5892709828722614 3.2138693018955005 -0.010971387586709416
0.5893075821379907 3.2147366494428296 -0.009320110089870853
0.5784428862226219 3.2148050634590253 -0.0022473509620723163
0.5750020543354813 3.224561 -0.004525994418715008
0.57756890276938 3.2245609999999996 -0.014139525973349491
0.588157865291861 3.2223554832708734 -0.004009663339771
0.5747869324293962 3.2221263708373487 -0.0128516034104495
0.5763829865693519 3.220859787270566 -0.002343194537486059
0.5886461052414578 3.2214325632912697 -0.01263371300085742
1.223602181023926 0.4164959999999999 0.7233962477097158
1.394169940938518 0.416496 0.7427678780828945
1.2473383630406514 0.416496 0.7406204584567442
1.3869073805241325 0.416496 0.7607662731516239
1.1602516016555977 0.4164959999999999 0.7504526028731052
1.1502974422426786 0.416496 0.7109136274964734
1.1559566309107039 0.416496 0.4404912177632844
1.187719009729211 0.416496 0.6230290463735129
1.4061077323892328 0.416496 0.726367500082458
1.4422067257123112 0.416496 0.4448789623864847
1.4831930148302297 0.416496 0.7703391501894338
1.5026588036577566 0.416496 0.727321983697226
1.2815865962964172 0.2074597562054951 -1.00832
1.2490535395371494 0.41520823782645266 -0.8662885874467467
1.2323192754873422 0.41341653544895357 -0.8875757929833552
1.1780843687234044 0.4061823704791357 -0.9054813239901265
1.1072547581988272 0.40250162231933617 -0.9087585967824952
1.1792628926366897 0.3845374639017595 -0.9184026656116042
1.1915757273631837 0.3674486423719822 -0.9277023495144551
1.190049649596451 0.36199259598935163 -0.9381720347507178
1.1191661382078721 0.33962599809727384 -0.9837503992842664
1.1499422223411275 0.3296070878206388 -0.9940366760282131
1.293451788392965 0.3149343995798134 -1.0022093471510725
1.1193794302018123 0.31392381436874306 -1.0025204181169272
1.1119114346754309 0.28821827728249494 -1.0085012943878964
1.2745293994295557 0.27911834284025483 -1.008535328336467
1.0993112234933993 0.26122275458856115 -1.0083257357844486
1.4472838811728057 0.41516733836730035 0.866727244885372
1.414626127921591 0.41383052638938406 0.8824608686168554
1.334014191720807 0.40950449562376035 0.8978805956843324
1.298727662822373 0.3981992830037008 0.9120317335660393
1.4204756786221302 0.38330800749009736 0.9188086886986393
1.4138902087701068 0.37708818924072157 0.9217245404921437
1.4494216634504515 0.35855157076748 0.945265615775839
1.3185609623619168 0.33814496100808394 0.9867427838158209
